# .PCD v0.7 - Point Cloud Data file format
VERSION 0.7
FIELDS x y z
SIZE 4 4 4
TYPE F F F
COUNT 1 1 1
WIDTH 1339
HEIGHT 1
VIEWPOINT 0 0 0 1 0 0 0
POINTS 1339
DATA ascii
0.0023423601 -0.0128603 -0.098700799
-0.035184 0.00198858 0.0236084
0.0093594696 0.111566 -0.054969698
-0.017143 0.038031999 -0.00630337
-0.0036132501 0.0129402 -0.073469803
0.00340095 -0.091505103 -0.0079266103
-0.0078361398 0.059911199 0.089237303
0.00084571698 -0.0105391 0.119187
-0.00373854 -0.12890799 0.0100023
-0.0110024 0.0287126 0.0127852
0.0040329699 0.084806502 -0.059409
-0.0180311 -0.015669599 -0.023773201
-0.019911099 0.0094731301 -0.0541365
-0.0040316898 -0.023377899 0.118373
-0.027709 0.00095681997 0.025071001
-0.0097422898 0.106973 0.061401401
0.00215732 0.0088421898 0.088058099
-0.0047552502 -0.0959993 0.073364899
-0.0144616 0.080302097 -0.0106628
-0.0091888299 -0.055925999 -0.0144196
-0.0080512697 0.0151731 -0.019183001
0.0034302101 0.00356209 -0.086146601
-0.017257901 -0.037174899 -0.0063277301
0.0038228801 0.048213702 -0.1076
-0.00183082 -0.079554103 0.090589799
-0.0092981197 -0.087494902 0.088486403
-0.0069353301 -0.00500368 -0.081247203
0.0094536701 -0.104125 -0.060608301
-0.0024840899 0.00310989 -0.129127
0.00068280799 0.090168498 0.0117423
0.00040810401 0.083958298 0.0593342
-0.0133451 -0.0063933702 -0.083186202
-0.0058427099 -0.12528799 0.026802599
-0.00275496 -0.0886871 -0.081673898
-0.00678823 -0.062044598 0.00032276701
-0.00280225 -0.065090597 -0.0096546998
-0.00068972597 0.089039899 0.069181897
-0.0051711798 0.052863799 -0.089703098
-0.00260019 -0.122884 -0.039800301
0.00951578 -0.036472499 0.118247
-0.00494859 0.0801633 0.066100799
0.000129173 -0.060905199 0.082818396
-0.025742499 -0.0094458396 -0.0274384
0.0095102703 0.111094 -0.0473372
-0.0050343601 -0.0336795 -0.123899
0.0065081199 -0.102085 -0.0269654
-0.0244579 -0.0315574 -0.0079736402
0.0091399997 -0.061932702 0.093699403
-0.0092595704 0.05522 -0.0144019
-0.0087684896 -0.032215599 0.121044
-0.0047623999 0.0445613 -0.112329
0.00104017 0.035093501 -0.124966
-0.00609673 0.0040719602 0.075457498
-0.000897563 -0.020809 -0.118205
-0.0096336501 0.049063001 0.00172468
-0.0039739199 -0.065916397 0.11085
0.000240825 0.118814 -0.0158215
-0.0174239 -0.0063220798 -0.0364509
0.00476901 0.084085397 0.080636002
0.0042847702 -0.047821902 0.092170604
0.0022648 -0.057778299 0.104056
-0.0059827599 0.12709001 0.0138538
-0.00331036 -0.0020310001 0.129207
-0.042095002 -0.0212241 -0.0043729199
0.0069289799 -0.074675001 0.0755338
-0.016832899 0.0063689002 -0.045767099
0.0089737503 0.026357399 0.122457
-0.00848452 -0.0142072 0.0546983
0.0044047702 0.125682 0.0272066
-0.0047421502 -0.116999 0.030427501
-0.0061070798 -0.086953498 0.093747102
0.0063238102 0.050118499 0.117894
0.0037585499 -0.0075470498 -0.092514999
0.00351226 -0.061615098 0.113358
-0.00064770802 0.00242535 0.0977237
-0.00237506 -0.0082507897 0.129041
0.00148332 -0.073911399 -0.071766101
-0.00025978501 -0.0418218 -0.0935672
-0.0099998601 0.043893602 0.113798
0.0092996098 0.077605598 -0.091830902
0.000129683 -0.0025185 0.102583
-0.033254899 -0.0047477498 0.020849301
-0.023664 0.0087067503 -0.036117099
0.0079645198 0.105577 0.0215491
0.00481494 -0.052175298 0.104327
0.00461005 0.106266 -0.049543001
-0.00048883801 -0.049823899 0.109372
0.0091399997 -0.077657104 0.087020002
0.0082094297 -0.10781 0.00345504
-0.0099240504 -0.0081584798 -0.122486
-0.0024536899 0.0100719 -0.000755299
-0.0083214799 0.063351601 -0.103216
0.00348105 0.060770798 0.0838257
-0.0035985699 0.0066596302 -0.0541103
0.00107838 -0.018004499 -0.099613801
0.0045484998 0.025934599 0.100681
-3.2112199e-05 0.12624601 -0.0287522
-0.033202 0.013008 0.012589
-0.0027841399 -0.032713499 0.107629
0.0091481302 0.072761297 0.10159
0.0091399997 -0.055113401 -0.102703
-0.00714172 -0.0050597298 0.083308503
0.0025613899 0.094382897 -0.0103185
0.0048191398 0.024212999 0.114126
0.0095828399 0.0421631 0.115983
0.00023491 0.109288 -0.028968001
-0.0030952001 0.088574499 -0.082098603
-0.0066083199 -0.086172499 -0.0613451
-0.0034203499 0.095687799 0.039082501
0.0030930799 -0.118427 -0.0080160201
0.00187692 0.079680197 0.102041
-0.00190233 -0.076395199 -0.0828605
-0.0053605302 0.071300298 -0.106588
-0.0095807603 -0.11142 -0.053645398
-0.0059427 0.064535998 0.110509
-0.0202395 -0.0507944 -0.0140543
0.0020761001 0.057127401 0.098589897
-0.0056996499 0.073091 0.075169899
0.0024000001 0.0073245801 0.0019259
0.0026438001 -0.0048977202 -0.113226
0.00276292 -0.092455499 -0.046145201
-0.021673899 -0.0151621 0.035846502
0.00033480799 0.095146097 -0.038332701
0.0091399997 -0.083947502 0.080737904
-0.00081074098 -0.12734 0.023295799
-0.0037010501 0.096976697 -0.085471801
0.0080266502 0.103099 -0.0326785
-0.0080000004 -0.0135169 0.018415101
-0.0048423898 -0.090564802 0.0136551
0.0091399997 0.103099 -0.053179301
-0.020692499 0.046096899 0.0069394498
0.0048872801 0.080425397 -0.066143297
0.0055147102 0.096659102 -0.0043065799
-0.0305716 -0.017214799 0.0083822301
-0.0108222 -0.095270902 0.0125205
-0.0080000004 -0.0046771802 0.0121458
-0.0050956602 -0.00019717999 0.042784698
-0.0038245299 0.118684 -0.022281799
0.0053130598 0.093243703 0.00155157
-0.00085100398 -0.101677 -0.048595801
0.0023890701 -0.0024657899 0.0078710401
-0.0138847 0.068500496 -0.0144868
-0.00388539 -0.067379698 0.0123862
0.0010692 -0.004123 0.110199
-0.00495621 -0.058667701 0.0115293
-0.0106016 0.0085648699 0.098835602
-0.0072615598 -0.068321697 -0.081274301
-0.0048428401 0.074846298 -0.0722415
-0.00316229 -0.0140352 0.091926098
0.0091399997 -0.086819202 0.073986202
-0.0076089599 0.099910997 -0.0152854
0.00283527 -0.083030798 0.078316599
-0.00047346501 -0.070372798 -0.097097397
0.0092126299 -0.00664176 0.119206
0.0074926699 0.067260802 0.107589
0.0091885095 0.121253 0.029714899
0.0040622898 -0.0809981 0.100023
0.0027479499 -0.027857499 0.1108
-0.0040198201 0.048315801 -0.00158772
-0.0053993799 0.034458801 0.098654203
-0.00162619 0.099671103 0.082428798
0.0048273099 -0.0959979 0.085367702
-0.045000002 0.0129791 -0.0093243103
-0.000193928 0.00228426 -0.0676926
0.0085931597 -0.0137619 -0.108887
-0.0119213 0.082002297 0.0138707
-0.027165299 -0.0058595301 0.0216932
0.0091399997 -0.0158829 -0.11455
0.00238857 0.129242 0.0041090799
0.0091569703 -0.0863363 -0.090679199
-0.0076663299 0.100132 -0.037027501
-0.0137734 0.0056988602 0.0469498
-0.0104737 -0.048949499 0.0144918
-0.0073400699 -0.094725601 0.0487733
-0.0039378498 0.127377 0.0213154
-0.0113876 0.0049807499 0.0534348
0.0041237101 -0.088719703 -0.0026376401
0.0094681298 -0.123441 -0.0114992
-0.0294965 0.0034987701 -0.0220982
0.0042188801 0.0115486 -0.12831099
0.00306497 0.089074403 -0.093304202
-0.0071450402 -0.107101 -0.0075109
-0.026967701 -0.018443 0.015727799
-0.0078600002 -0.104345 0.0294099
-0.020712599 0.0196063 -0.0174495
-0.00632222 0.032074101 -0.123771
-0.0109034 0.063006803 -0.0146318
0.00161665 0.041892499 -0.111938
-0.045000002 0.0090364702 -0.00063363899
-0.0143095 -0.00598164 0.051209901
0.0073208199 -0.079977103 -0.0700114
-0.00133352 0.0125175 0.084168598
-0.045000002 0.000105152 0.0132767
-0.016903499 -0.012888 -0.068204798
-0.00038507499 -0.0088160196 -0.075805299
-0.0090478202 -0.120271 0.0148853
-0.018896401 -0.0564651 0.0141579
-0.00426216 -0.118641 0.0505968
0.0030270601 0.0135418 0.100026
0.0091582602 0.094952002 -0.071697198
0.0064961701 -0.0609743 0.086424999
-0.0072161802 -0.073856302 0.095803499
0.0039744899 0.01042 -0.0996769
-0.0146349 0.056300402 0.0061101802
-0.0305553 -0.0127858 0.0128112
-0.0108572 0.0108372 -0.097609296
-0.0091577098 0.030951699 0.120878
-0.0022498099 0.0434306 -0.093467802
-0.045000002 0.0019750199 0.0184204
-0.00149518 0.104288 -0.042385299
-0.0035097499 0.0193369 -0.099118203
0.0067285602 0.0513345 -0.092574902
-0.0184363 -0.0332736 0.0151642
-0.00374135 -0.087191299 0.00369226
-0.0080000004 0.00122696 -0.0134544
-0.0071449699 -0.0292542 0.107414
0.0046512601 -0.112648 -0.027385101
-0.0133477 0.076286003 -0.014122
-0.00370559 -0.076391697 -0.069853097
0.0071002999 -0.042526498 -0.097212799
-0.00472889 -0.088918097 0.081707798
0.00105319 0.106274 0.0395808
-0.0141053 -0.065681502 0.0060474002
0.0096961698 0.055721801 0.107609
-0.0202512 0.0253346 0.0153668
-0.0051941001 -0.108886 -0.0269378
-0.0217188 0.0353624 -0.0151641
-0.0129162 -0.00585349 -0.077039197
-0.0045131901 -0.10826 -0.069675498
-0.0037346899 0.075618498 0.070773304
0.0091399997 0.084018297 -0.076087803
0.0095985401 0.031773299 -0.119468
0.00318933 -0.116089 -0.056175899
-0.00683652 0.036123801 -0.10571
-0.0027543099 -0.040238999 0.122939
-0.0070649101 -0.084213302 0.072827697
0.0092111398 -0.030711399 0.120894
0.0083380202 -0.066166997 0.086598299
0.00041178701 0.118083 0.0204113
0.00072641397 0.093177103 -0.0648361
-0.0114689 -0.0586804 -0.0055014198
-0.0025603401 -0.00183735 0.086189501
0.0096174804 0.063166298 -0.10612
0.000824605 0.0073023802 0.077521197
-0.0090985801 -0.0239674 0.122527
-0.0023024699 0.058387 -0.105641
-0.014668 -0.0135396 0.0763705
0.0096267201 -0.102285 0.0643197
-0.00220777 0.065231197 -0.0084383804
-0.0085644098 -0.062663898 -0.108968
-0.0115537 0.018523101 0.0182459
0.0091399997 -0.018150199 0.112235
0.0067150402 0.120095 -0.0425964
-0.000939872 -0.0820219 -0.100034
0.000621441 0.107882 0.0032794899
-0.00097231602 -0.0015849801 0.093646698
0.0096399896 -0.080436699 -0.0933128
-0.027000001 -0.024819801 0.0044396101
-0.000922376 0.064486101 0.00277052
-0.00636615 0.0513223 -0.099464603
-0.012198 0.047500599 -0.0048126699
-0.0043199798 0.092107601 -0.077999502
-0.00066556397 0.018190701 0.128223
0.00184772 0.0723534 0.073509097
-0.0055423798 0.090384297 -0.066247202
-0.00369146 -0.071418002 0.086635999
0.0093482099 -0.076732904 -0.097770102
-0.020911001 -0.047660999 0.0074433298
0.0078343302 0.0102611 -0.107059
-0.0080000004 -0.019791201 -0.0081891902
0.0090132495 0.065045401 0.090167999
-0.044758301 -0.00154836 0.022495801
0.0057029501 -0.031754199 -0.124208
0.0098605296 -0.118389 0.031271599
-0.000370928 -0.117276 -0.025887299
-0.0066154199 0.099874496 0.0686047
-0.0034813201 -0.079419099 0.101765
-0.0148846 0.00255585 -0.034628902
-0.027000001 0.0043663802 -0.0281047
0.00194872 -0.068027101 -0.109996
-0.010516 0.0143565 0.071636297
0.0075528398 -0.062635802 -0.110063
-0.0083198501 -0.045967899 0.117523
-0.0093207797 -0.072319798 0.101328
0.0048473398 -0.0074217501 -0.097715601
-0.033202901 0.0066261501 -0.018970801
-0.0112762 -0.086155303 -0.0056078001
-0.00165752 0.0067648399 -0.120241
-0.00498738 0.094372503 0.087398097
-0.00465794 -0.034107599 -0.106787
-0.023139801 -0.0116257 -0.0386369
0.0074657202 -0.106162 0.0104633
-0.00293795 0.111457 -0.0459502
0.0095564304 0.123375 0.0059467298
-0.00836353 -0.126055 -0.00068797701
-0.0072065401 -0.0052245799 0.097812302
-0.0052354299 0.01312 -0.0129446
-0.000105132 -0.068572797 0.098335698
-0.0080000004 -0.00194512 -0.025385199
-0.0041965698 0.085757203 -0.072219402
0.0091399997 0.106646 -0.043763898
-0.0041601099 0.069810398 0.087963402
0.00410769 -0.094930902 -0.041059598
-0.0078600002 -0.059523899 0.091038004
-0.0067892098 0.035581298 -0.00317207
-0.00193458 0.119785 0.0113669
0.00287222 -0.033406701 -0.114002
-0.0176525 0.0148666 -0.0550755
0.0033348801 0.0130931 0.117529
-0.0030364101 -0.099453501 -0.068166703
0.00660996 0.060917199 0.112032
-0.0172277 0.0581518 -0.0064325598
0.0047738599 -0.070337102 -0.093096301
-0.0210119 -0.0151857 -0.030109899
-0.0080000004 0.019324601 -0.0097824503
-0.0080000004 -0.0064731999 0.018122699
-0.0086716898 0.12566499 0.00160856
-0.0065166098 -0.0140677 -0.06453
-0.0025635499 0.070720002 0.108197
-0.00225884 0.068741202 0.076712199
-0.045000002 0.0178084 -0.0037769701
-0.00402368 -0.066173702 0.101274
-0.0080000004 0.0197562 -0.00333101
-0.0049502901 0.0610971 -0.084401697
-0.0115362 -0.0133444 0.028679799
0.00148391 0.109106 -0.00263339
-0.0087339003 0.0710508 0.098277003
-0.0022875599 0.00675182 -0.108546
-0.0273534 0.0204686 0.0064217402
-0.0089649698 -0.0135485 0.0892106
0.0021325401 -0.112217 0.0197054
-0.00270967 0.056800701 0.0042590802
-0.0111713 -0.0056261299 0.089475296
-0.0060273502 0.089125797 -0.0049608801
0.0055062901 -0.090804003 0.052138101
-0.00042570999 -0.055303302 0.086225301
-0.0066135302 -0.0067380499 -0.039579999
0.0023987801 -0.0654305 -0.093398198
-0.0087575801 -0.0101846 -0.107628
0.0088689104 -0.032897599 0.10567
-0.00377886 -0.114884 0.036803301
-0.0036806201 0.059519801 -0.0091128498
-0.0021799 0.0078540398 -0.063769698
0.00913163 -0.106475 -0.0339818
-0.01157 -0.0111407 0.094186798
0.0036476301 0.12422 0.0348184
0.00095830701 -0.059835002 -0.103454
-0.0078600002 0.078280598 0.075979702
-0.00860193 0.100257 -0.068334296
-0.00296697 -0.0171989 0.111149
0.00674095 -0.0075290198 -0.104681
-0.0164454 -0.0150249 -0.040962201
-0.017676501 -0.027710499 0.0151839
-0.0088473503 0.095090203 -0.081542902
-0.00493357 0.0365071 -0.097307198
-0.0042712302 0.092545398 0.047336999
-0.0097925402 -0.074847601 0.0142101
-0.0100874 -0.0044158199 0.056967799
-0.00053609197 0.0737506 -0.0083444901
-0.00914222 -0.025948601 -0.121921
-0.0100465 0.0145519 -0.066560701
0.0074081998 -0.0496413 -0.11659
-0.0078600002 0.045302499 0.099127203
-0.00085855799 -0.0859126 0.073229201
-0.0067528901 -0.110039 -0.064304598
-0.0101571 -0.033971898 0.0121202
-0.0046453499 0.086591803 0.084530503
-0.045000002 0.00114495 -0.00543269
-0.012251 0.0058015599 -0.065953098
-0.0062433602 0.102139 0.019675501
-0.0243067 -0.0113177 -0.033033598
0.0096821999 -0.096812502 0.072999701
-0.00121623 0.102298 -0.047451101
-0.0087683396 0.0361728 -0.0104629
-0.0047954302 0.096086398 0.0048351199
0.0095646502 -0.100264 -0.067530699
-0.0032547701 0.051872499 -0.118442
-0.0093328301 0.068589702 0.103572
-0.0080000004 -0.0091197602 -0.0080966204
0.0091399997 0.051686902 -0.105883
-0.0098962896 0.062305398 0.104415
-0.0186476 -0.0148984 -0.0516706
-0.0113806 -0.0133888 -0.088634901
0.0025444699 0.00051767699 -0.109959
-0.0133663 -0.0215993 0.016202301
-0.0130212 0.014759 0.057262901
0.00582573 -0.0993561 -0.081169598
-0.0139675 -0.0148717 0.0467586
-0.0077016698 0.105168 0.034495302
-0.0068619899 0.080174997 0.0139726
-0.0042653698 0.118791 -0.050231401
-0.0079196701 -0.125642 0.0149781
0.00765057 -0.080342598 0.070285097
-0.0057893801 -0.042388901 -0.0049270601
0.0082421303 -0.106712 0.020425901
-0.00713355 0.105748 -0.0588223
-0.0014224499 0.081565499 -0.100622
-0.0031402099 -0.080573604 4.0316001e-05
0.0084162196 -0.125745 0.00161771
-0.037588298 0.0043707401 -0.0212263
-0.0106647 -0.0130525 0.035196699
0.0091399997 0.0154753 -0.112039
0.00154418 -0.117465 0.021051699
-0.044321001 0.0153922 0.0093718404
-0.0040543298 -0.108002 0.0303765
-0.0098876003 0.051788799 -0.111692
-0.0049260901 -0.080011703 -0.090834297
-0.0062385001 -0.120871 -0.0056084702
0.0091399997 0.098686904 -0.063975699
0.00147626 0.0598066 0.103426
-0.021788999 -0.033275701 -0.0036355101
-0.0028961201 0.091925301 0.0780055
-0.00059237401 -0.069195502 0.0067271199
0.0018197499 0.01791 -0.100239
-0.0223027 0.0408931 0.0142191
1.31462e-05 0.114777 0.035041701
0.0081271604 0.12615301 -0.00285511
-0.00408909 0.082703099 0.00321813
-0.0026574901 0.030495601 0.116598
-0.0171471 -0.0674069 0.0116474
0.0097405203 8.9123998e-05 0.123065
-0.0040341802 -0.095630802 -0.039750598
-0.0042884098 0.0456522 -0.102377
0.0091399997 -0.0713282 -0.090009697
-0.0083762603 0.108637 -0.0105471
0.00129592 -0.0408931 -0.123189
0.00414393 0.100846 -0.0112941
-0.0038219099 0.109607 -0.023920501
0.00952031 -0.068717301 -0.099084198
-0.0078600002 -0.046236601 -0.099050298
-0.034294799 0.0200989 0.0054980498
-0.0021434601 0.11298 -0.062677503
-0.012464 -0.0145769 0.066567399
0.00134183 -0.00087035203 -0.074256502
-0.0067119501 -0.076695196 -0.0141335
0.00649826 0.034658901 0.122993
-0.0045299898 0.092996702 0.0140866
-0.00339558 -0.071782596 -0.0125631
-0.00362013 -0.012528 -0.070118196
-0.0061985799 0.102656 0.063848302
-0.020379599 0.038355399 0.0066410298
0.0081931604 0.087421902 -0.0645274
0.0086636096 0.095645599 -0.081489198
-0.00144836 -0.096602 -0.085932598
-0.0053449799 0.094448097 -0.0142226
-0.0028375101 0.055833101 -0.00411647
-0.0071300799 -0.071907498 -0.097278804
0.0091399997 -0.0465752 -0.108729
0.0039836499 -0.075217903 0.071034998
0.0061688302 0.087383397 0.058851201
0.0091399997 -0.103651 -0.054191198
0.0045006899 -0.095202103 0.041320801
0.00057503697 0.094884798 0.088484101
-0.0041116802 0.098531 -0.0328159
-0.0109198 0.0555177 -0.0049223602
0.0061967699 -0.102004 0.0062210099
-0.0093686804 -0.065898404 0.105136
-0.016122499 0.0062892102 0.061367098
-0.014743 -0.053803802 0.0061280602
-0.0059124199 -0.0059064599 0.105007
-0.00160888 0.0316265 -0.098089099
-0.0099002002 0.0112696 -0.122555
0.0066520199 0.00090819102 -0.099393196
-0.0131039 -0.010348 0.086820498
0.0093973698 0.0455864 0.111333
-0.0036038 -0.039575901 0.105015
0.0091399997 0.048092 -0.101834
-0.0083905403 -0.11792 0.0453065
-1.0083e-05 0.0356455 -0.114393
0.00187073 0.075266197 -0.0703035
-0.0026128599 0.0737895 0.084772199
-0.0080000004 0.0071370001 0.0161648
-0.0046476899 -0.0236433 0.109575
0.0091399997 -0.116758 0.00030962899
-0.0082251402 -0.0065381299 0.126324
0.0039871801 0.091559403 -0.069610603
0.00133735 -0.077936001 0.082680799
0.0096274903 0.113711 0.047632001
0.0055768299 0.111418 0.063496597
0.00047349001 -0.0026720599 -0.105309
-0.00322593 0.00667055 -0.00664652
-0.00445246 -0.0567411 -0.0097420998
-0.00385676 0.092800699 -0.089684002
0.00155147 0.098719902 -0.0296824
-0.0125462 0.0412312 -0.00416373
-0.0033144101 -0.0719501 0.0744306
-0.0078600002 0.054400101 0.093917497
-0.0067180302 -0.098429903 0.0384074
-0.0075416402 0.026840899 0.10753
0.0082882699 -0.124791 0.0165394
0.0052579199 0.0293919 0.12507699
-0.039887998 -0.0134031 0.0121939
0.0092569403 -0.022481401 -0.117625
-0.0058657699 0.0541525 0.115905
-0.027000001 -0.0116146 0.019413499
-0.0119788 0.0046677198 -0.048188102
-0.000235764 -0.105523 0.040453199
-0.0056384699 -0.051548202 -0.0101244
-0.00074759597 -0.0855508 0.097129896
0.0091399997 0.083654501 0.076463699
-0.0070161298 -0.0141285 -0.075296603
0.0038029801 0.089034401 0.0052780099
-0.0148488 -0.0068369699 0.076822199
-0.0068943398 0.0051247701 -0.090736203
-0.0080000004 -0.0249091 0.004675
0.0014929801 0.0549042 0.117348
0.0011450601 0.049981602 0.119854
0.00142166 -0.091903098 -0.076602802
0.00153564 -0.085872501 0.056657899
-0.00088017702 -0.063431598 -0.00081669301
-0.00115141 0.050817601 -0.10881
0.00379733 0.092377298 0.046895102
-0.0065770298 0.107792 0.029123301
0.0094405096 -0.110061 -0.057121798
-0.0070715402 -0.067187101 -0.089010701
-0.017751999 -0.0297575 -0.0151582
-0.0155179 -0.0151188 -0.031149499
-0.0044559799 -0.010962 0.059807401
-0.0078222202 0.10742 0.023407999
-0.0079938499 -0.080931798 0.097137101
0.0054531 0.067434803 -0.079986401
-0.00088476198 0.107787 -0.0535216
0.0095568597 0.032832298 0.116237
-0.0114475 -0.0143417 0.071840301
-0.000212025 -0.109 -0.0295006
0.00354942 0.0122368 -0.117474
-0.0089371698 0.12428 -0.0133559
0.0092300503 0.071978897 0.0955185
-0.00600392 0.054718699 -0.107907
-0.0056974199 0.00268925 -0.040678199
0.0023939901 0.113592 0.0103117
0.0091399997 0.056022398 -0.098847702
0.0047388598 -0.104678 0.050015301
-0.00435388 0.112635 0.043392401
-0.0141885 0.030353401 -0.0148514
0.0091359103 0.0517754 0.099175103
-0.0115857 0.0925318 -0.00639692
0.00079866202 -0.081395 -0.0877802
-0.00526259 0.121113 0.00025679701
0.00205577 0.00128337 0.077931799
0.0092048002 -0.0145986 0.118539
0.0091399997 0.041864298 -0.106554
0.0091399997 -0.113015 -0.0066238702
0.0045113401 -0.050074399 -0.106319
-0.00165445 0.081542298 0.0123827
0.0091399997 0.113323 0.029159101
-0.017556399 0.0141542 0.0623006
-0.0124211 -0.00576849 0.061606199
-0.0078600002 0.10603 -0.022243701
0.0091399997 0.101848 -0.047321599
-0.045000002 0.0135103 0.00296498
-0.0057311198 -0.086204298 -0.094693601
0.0080051199 0.107336 -0.0124675
-0.00084775401 -0.00124178 0.063903302
-0.00185219 0.054446101 -0.098784298
0.0082335304 0.067035802 -0.085440002
-0.0107432 0.0343045 0.0129441
0.0099565797 0.0205271 -0.120304
0.0094162896 -0.117782 -0.024779599
-0.028974701 0.0101511 -0.0154555
-0.0133757 0.0148447 0.048797399
0.000420322 0.116266 -0.028167199
-0.0080000004 0.012046 0.020749999
0.0096306102 -0.113167 -0.042362399
-0.0190283 0.0108793 0.058375102
0.00098506303 0.110084 0.026980801
-0.0022923599 -0.01232 0.076947801
-0.0056909001 -0.0081054103 -0.047039799
-0.0091801398 0.088467702 -0.087569103
0.00250937 0.128491 -0.0138808
-0.0076460699 0.092948496 -0.0600686
-0.0021615699 -0.12606899 -0.029413801
-0.0099587804 0.109647 -0.0545028
0.0094868699 -0.043514401 0.115949
-0.0160801 -0.0150576 0.035129499
-0.0088246102 0.012963 0.124755
0.0034612899 -0.0174539 0.12773199
0.00174579 0.043474499 -0.105073
-0.0078089698 -0.079582401 -0.071867302
-0.015093 0.0063624298 0.072900303
-0.0050699902 0.017603399 0.110884
-0.0078600002 -0.0561257 -0.094332799
-0.0080000004 -0.0095337499 -0.021536199
0.000879951 -0.0128738 0.12896299
-0.0069446801 0.124036 0.0278663
0.0056416201 0.075193502 -0.103859
-0.0144406 0.0091615999 0.080402903
-0.0084984796 -0.019118501 -0.119637
0.0086239297 0.0078230305 0.108927
0.0047234399 0.031479701 0.112482
-0.0064662402 0.113151 0.0587845
0.0022508299 0.065589502 0.079396203
0.009908 0.019577701 0.120135
0.00215395 0.083202899 0.085377201
-0.0057089599 -0.0524843 0.116713
-0.00062094198 -0.117172 0.0270305
-0.00478369 0.102599 0.045071699
-0.00113211 -0.077655099 0.067063697
-0.017654199 -0.064971901 -0.0113039
-0.0107306 -0.0144771 -0.069029599
0.0060426001 0.108218 -0.068785898
0.00047171599 0.074616402 -0.1059
0.00015129001 0.0096526798 -0.080058701
-0.0079284497 0.00390389 -0.0299135
0.0092445398 -0.057667602 0.104844
-0.0099971201 0.058433101 -0.107028
0.0091698002 -0.084623903 0.092043802
0.00051562401 -0.093792103 0.0633021
-0.019613201 0.045954701 -0.0150769
-0.00177033 0.091561601 -0.00247162
-0.0170453 0.0148933 0.053765502
-0.0223323 0.042512599 -0.0101352
0.00069656799 -0.0041428199 0.119475
0.0068422002 0.018769201 0.104415
-0.00098643405 -0.067299098 0.090357997
0.0053644199 -0.045420598 0.120105
0.0091399997 0.11139 -0.037764199
-0.00099647697 -0.050639801 -0.1007
-0.0029069199 -0.0099545997 -0.065426096
-0.0064194999 -0.079268597 0.00466289
-0.0082172304 -0.0137812 -0.0842041
0.0024000001 0.00186132 0.00173886
-0.0109663 0.0056190002 0.085139997
-0.0098903403 -0.11962 0.029283701
-0.0135657 -0.046927899 -0.0148651
-0.00709402 -0.0132348 -0.0561039
-0.00500783 0.025447 -0.118236
0.0098428102 0.117673 0.034889299
-0.016829399 -0.0061653899 0.036513399
0.00249968 -0.0361876 0.096521303
0.00930297 0.098202698 -0.0763641
-0.00402709 0.028460599 0.099710599
-0.000784248 0.098772399 -0.018806901
-0.0146302 -0.079492398 0.010764
-0.0078609399 -0.000441379 0.126623
-0.021151699 0.0138291 -0.0474126
0.00150026 0.0825065 0.00795417
-0.0060647498 -0.104667 0.060974099
0.0093688797 0.072739199 -0.095840499
0.00052169902 0.12879799 0.0150011
0.0091399997 0.058571801 0.099470101
0.0032812201 0.103753 -0.0569661
0.0020961701 -0.097635299 -0.068271503
0.0081321103 0.124944 -0.0186926
-0.00768812 -0.075123303 -0.102234
0.0094568301 0.119917 0.0114254
-0.0057757199 0.040819898 -0.0034360799
-0.0066886302 -0.079245001 -0.078863502
0.0091399997 -0.111964 -0.033050399
0.0091653699 -0.0610184 0.10908
-0.0069878302 -0.0026354799 0.064545102
-0.0117324 -0.0146393 -0.0471364
-0.0251438 -0.0286333 0.0136979
-0.0070490502 -0.0194373 -0.125686
-0.00076986098 -0.086686797 -0.0123432
-0.0068224398 0.00275716 -0.065617599
0.00235995 0.017392499 -0.12818
0.0058462601 0.057156499 0.088084497
-0.0091364104 0.081050597 0.094839998
0.0042419299 -0.123933 -0.034576599
0.00189504 -0.07858 -0.0034281299
0.0096904198 -0.113459 -0.047740199
-0.0089900801 -0.00111599 0.051393799
0.0053853602 -0.0968026 -0.00536629
0.0082796002 -0.080617599 0.096674599
-0.0075113098 0.120497 0.0397688
0.00909012 -0.0085754702 -0.110629
0.00146551 -0.043458499 0.093277
0.0022595299 0.113438 -0.0105321
-0.0075380299 0.058903001 0.00102551
0.0068544401 -0.064488702 -0.084147103
0.00050102599 -0.0106331 0.084223397
0.0059565301 -0.067938603 -0.080146603
-0.0150083 0.0061507798 -0.053252298
-0.016067401 0.072591603 -0.0099528003
-0.0115836 -0.067086503 -0.0056872801
-0.0048537101 0.0998597 0.0293401
-0.0065873601 0.120684 -0.0409903
-0.0071748099 0.067786999 0.0142688
0.0096097598 -0.0218553 0.118927
-0.00087662402 0.099636197 0.0030040301
-0.0074864798 -0.08427 -0.0137795
-0.0055785002 0.066682801 -0.0136191
-0.00651403 0.0051327301 0.094259404
0.0021617999 -0.0095085604 0.089829303
-0.022773299 -0.0086633498 0.040393699
-0.00413496 -0.0102138 -0.00050959102
0.0091399997 0.095051996 0.068411604
-0.0134683 -0.082192503 0.0062993099
-0.00091395399 -0.0455322 -0.121208
-0.0172392 -0.035724498 0.000894973
0.00190214 -0.0149277 0.112846
0.0091265803 0.0206929 0.109486
-0.0022853599 -0.0571266 -0.096921302
0.0071484102 -0.103417 -0.0034175499
-0.0091562001 0.109342 0.052896898
0.00273052 0.107505 0.0507579
0.0037844901 0.010295 0.128488
0.00049281301 -0.022615399 0.110792
0.00531463 -0.093442902 -0.087999597
-0.0091992998 0.057549201 0.106988
0.0091399997 0.098916598 0.0603876
-0.0080000004 0.028447701 0.0047906302
-0.0052752001 0.080356099 -0.078309298
-0.0102056 0.100738 -0.0099310502
0.0097302003 0.0117939 0.1205
-0.043981299 0.0064946599 -0.0187313
-0.0059100199 -0.105421 0.0061452999
-0.00734514 0.0875258 0.068469502
-0.00212791 0.067289099 0.0091391103
-0.0079556601 -0.056697 -0.00095790502
-0.0045378902 -0.099038303 -0.082352802
-0.0019606999 0.12636299 0.027060101
-0.00711588 -0.102939 0.042265601
0.00107966 0.12929299 -0.0088084396
-0.0028735499 -0.063120797 0.0089372704
-0.0099901203 -0.115714 -0.038208701
-0.010321 -0.044838499 -0.00141305
-0.00135465 -0.089381501 0.050654501
-0.0057122102 0.073473603 -0.096358098
0.00128714 0.127819 -0.0219259
0.0095546497 0.0258685 -0.120798
0.0091399997 -0.092171401 -0.065428697
0.00174942 -0.033965599 -0.097273096
0.0033418599 0.087826401 0.0541871
-0.0250782 0.027945699 0.0141648
0.000876837 -0.127372 -0.0246031
-0.00121761 0.116952 -0.055849701
0.0082480302 0.037425902 0.10199
-0.0078330198 -0.0143157 0.063671701
-0.0068026101 -0.075559199 0.082180597
-0.000224395 0.0125476 -0.091862202
0.0049563302 -0.119121 -0.048455801
0.0091399997 -0.094701499 0.067697302
-0.0052517802 0.0115847 0.0572525
-0.0021329499 0.071223103 -0.087169498
-0.00380057 0.0440998 0.112435
-0.0074316501 0.105521 0.0064607598
-0.00347465 0.0085186698 0.109449
-0.0028619999 0.0818711 0.088507302
-0.0066192499 0.0080717504 -0.041576602
-0.0117989 0.0057735299 0.068368502
-0.035666801 -0.0157413 0.0098556904
-0.0167521 -0.0063492302 -0.042663898
0.0090757804 0.00037762901 0.111172
-0.0035244699 0.088430598 0.053579301
-0.0362514 0.0127713 -0.0128257
-0.0162815 -0.062152699 -0.0063017402
-0.0094707804 -0.077062897 -0.097023398
0.0038646499 0.0688833 0.092150301
-0.022154899 -0.042520002 0.0078081
-0.0028944099 -0.119377 0.016848801
-0.016738599 -0.00634347 0.043555301
-0.045000002 -0.0099875601 0.0025656701
-0.0165597 -0.0072906599 -0.069389798
0.0099999998 0.12045 0.019803001
-0.027000001 0.017010801 0.0121732
0.0044710198 -0.101723 -0.0120605
-0.00504401 -0.029996101 0.117189
0.0095465695 -0.116443 0.041688599
0.0019863499 0.100196 -0.023346299
-0.0131522 -0.086589202 0.0111203
0.0091399997 0.0139876 0.114006
-0.0080430396 -0.010354 0.039671499
0.0096950801 0.104792 0.0607308
-0.0148889 0.0061367 -0.061271399
-0.0028610099 0.114741 -0.037782699
0.0091399997 0.11222 -0.0071065701
0.00075885002 0.016833199 0.112279
-0.00309101 0.0035148601 0.054207999
-0.0125689 -0.070235401 0.0144121
0.0016996 0.037159398 0.113466
0.00387147 0.042554501 -0.12152
0.0095881596 -0.066076197 -0.1042
-0.0088736797 0.100815 0.013597
-0.0057427301 0.107923 -0.029673601
0.0091399997 -0.046736602 0.104416
-0.045000002 -0.00187553 -0.0206357
-0.0027196801 0.123976 0.0373118
-0.00175162 0.00077842898 0.059015099
-0.00148192 0.097668201 0.070449397
-0.0080000004 -0.0122563 0.0083559901
0.00152305 0.070237599 -0.096655399
-0.0134597 -0.085112303 -0.0107655
-0.0061697299 -0.038079198 0.00214716
-0.0044619199 0.0048140101 0.048285399
-0.0031294599 0.0045308699 0.102284
-0.0041558999 -0.030407799 -0.099268302
-0.0099919504 0.0502862 0.0144709
-0.027000001 -0.0043461402 -0.0291682
-0.017041599 0.0087612905 0.067913599
-0.0069510899 0.102867 -0.042898901
-0.0042126202 0.105119 0.0390804
-0.027000001 0.0141616 -0.0188812
-0.039783601 0.0041164202 0.021480599
-0.0144764 0.063776001 -0.0060925898
-0.0022974799 -0.0215165 -0.127592
-0.00078057102 0.0284399 0.126314
0.00133241 0.074739799 0.0016689399
-0.0098640202 0.115255 0.0432413
-0.0043947999 -0.0137726 0.082791798
-0.0078600002 0.061864302 -0.088789701
-0.027522501 -0.00497586 -0.0216757
-0.027000001 0.000495199 -0.032168798
0.0028545 -0.105137 -0.074983798
-0.0155293 -0.0147905 0.053673699
0.0021985399 -0.0246833 -0.11123
0.0062609599 -0.120522 -0.043085199
-0.00047789799 -0.0995754 -0.024408201
-0.0098979399 -0.122692 -0.0104624
-0.0070348498 0.0138152 0.083591796
-0.027000001 0.026478199 -0.0046246802
-0.00539752 0.040095001 0.096317701
-0.0050401101 -0.0215283 0.126791
0.0096094003 0.0820361 -0.088674203
-0.027000001 0.0134972 0.0190644
-0.0088358903 -0.040068101 -0.114306
0.0054724002 -0.00145629 -0.093898401
-0.0079901302 -0.00531781 -0.093495399
0.0078338496 -0.036080599 0.10119
-0.00089313497 -0.0786805 -0.065741599
-0.0100476 -0.101496 -0.0076686302
-0.0099999998 0.113951 -0.0431058
-0.0025530399 -0.071277604 -0.074673802
-0.0100281 -0.059141099 0.00470958
0.00744747 -0.00067766203 0.10314
-0.0036649201 0.103474 0.077065699
0.0091399997 0.021311101 -0.112969
0.0091399997 0.114837 -0.025052
-0.0175809 -0.0064409198 -0.054326098
-0.0073975502 -0.084394902 0.013776
0.0024820401 0.0021708501 -0.0806567
-0.0289841 0.0065781302 0.019024899
-0.0107189 0.043701999 0.0143608
-0.0132545 -0.080606498 -0.0136833
-0.0071996301 0.10023 -0.048668001
0.0051087299 -0.127037 -0.0185223
-0.00200666 0.040698301 -0.122646
-0.0126907 0.085262999 -0.0061180298
-0.0065699299 -0.0928808 -0.087214202
0.00367619 -0.088681601 0.0937794
-0.015456 -0.074204601 -0.0070035602
-0.0066089998 -0.081513897 -0.067047603
0.00080312003 0.11271 0.040063199
-0.0095573701 0.030780399 -0.117384
-0.0078600002 0.072713703 0.081048101
0.00334508 -0.099041201 0.064728402
-0.0049999999 -0.016176401 0.00017328501
-0.00090120302 -0.087255597 -0.0717953
-0.0068864902 0.017053301 0.0069328002
-0.017434699 -0.0512775 0.0149512
-0.0084403502 -0.045940202 -0.117277
0.00264308 0.073291697 0.087450899
-0.00991775 -0.048535801 0.112701
-0.0051541701 0.0257481 -0.10902
0.0044486499 -0.0052884598 0.092188202
0.0045116199 -0.029045699 0.125286
0.00157722 -0.0074761999 -0.081546202
-0.0067785 0.056032501 -0.11426
-9.60736e-05 0.097426198 -0.056996401
-0.0068303002 0.00123293 -0.0345691
0.0091399997 -0.0896319 -0.073844403
-0.0079160202 -0.041275401 0.010732
-0.0068782601 0.0064924499 -0.0172364
0.0037217899 0.0084269196 -0.094275802
-0.0171977 -0.0180743 -0.018909501
-0.00826097 -0.0243249 0.0109923
-0.0044265799 -0.098964497 0.0319773
0.0090081897 0.109166 -0.020141199
-0.0092257699 -0.094641097 -0.0807238
-0.027000001 -0.0118867 -0.017499801
-0.0087049697 -0.0138619 -0.124613
0.0091399997 0.0068005798 -0.113195
0.0098297102 -0.092858598 0.078079604
-0.0056265201 0.123978 -0.032129399
-0.0109616 -0.0103903 -0.0971082
-0.00340927 0.078381501 0.080497101
-0.027000001 -0.0325232 0.00088916399
-0.0080000004 0.0032218599 -0.024145801
-0.0021921401 0.103448 -0.0615572
0.00242614 0.084472097 -0.098008402
-0.0260715 0.0052773599 0.031009801
0.00627275 0.064112298 -0.110756
0.0099189896 -0.122167 -0.0036275899
-0.0070398301 -0.039541598 0.098304503
0.0080494396 -0.104717 0.0702563
-0.0082716597 -0.040583801 -0.0111661
0.0055986098 -0.126081 0.024003901
0.0090785604 -0.040918499 -0.103267
-0.0062744599 -0.096861899 -0.056170698
0.0027251199 -0.063540503 0.100549
-0.0080000004 0.0189601 0.0121166
-0.0023563099 0.0066638798 0.060178399
0.00761199 -0.106298 -0.068633802
-0.0060340799 -0.0090177497 0.046695299
0.0079399999 0.087922201 0.090540998
-0.0101614 0.0140191 -0.078899004
-0.0084430799 -0.0923917 -0.0053575998
-0.0049999999 -0.0051186401 -0.0139324
0.0091967396 -0.066601001 0.10554
-0.0225779 0.0153978 0.0254003
-0.0056875702 -0.096326999 0.0152877
-0.0124027 -0.0029098301 -0.0372012
-0.00621094 -0.067267798 -0.0018481601
0.0036753099 0.088603698 -0.0054511302
0.0065341098 0.0042004399 0.12749401
0.00064966001 0.081133798 -0.0087179802
0.0095220003 -0.077359296 0.092500098
-0.0057766298 0.118751 0.0228191
-0.0124685 0.0061611002 -0.086994
0.00328709 -0.118289 -0.00266874
-0.0032796799 -0.091697901 0.091045097
-0.0088565797 0.0394128 -0.118715
0.0065148701 0.100858 0.032102
-0.0017290401 -0.0074689798 0.065137602
-0.045000002 -0.0075622099 0.0106944
-0.0076138098 0.0142078 -0.0596404
-0.0040811598 -0.096599199 -0.0046450198
-0.00261732 -0.0057190498 0.0581447
0.00056718802 -0.033537801 -0.108188
-0.00033999301 -0.113926 0.061921202
-0.0077120098 -0.077357002 0.073914602
-0.0080000004 -0.0041048401 0.0262328
-0.045000002 -0.0154885 -0.00136565
-0.0011341301 0.00391261 0.12927601
0.0098202499 0.058034401 -0.107933
0.00163465 -0.043989301 -0.104922
0.00373019 -0.111352 -0.0391462
-0.00839845 0.114778 0.0525738
-0.00915551 -0.10299 0.0124182
-0.0041906098 0.000168735 -0.0752692
0.0021623899 -0.0085130902 -0.087171197
0.0027024001 -0.0614723 -0.113731
0.0072241202 0.055768501 0.114013
-0.0097640799 -0.050096199 -0.0026619399
-0.00168977 -0.049773298 0.090051398
-0.00371726 0.111044 -0.0127406
-0.0049463599 -0.117538 -0.051884599
0.0086469604 0.056879099 0.093870901
-0.043485101 -0.0125517 -0.0128616
-0.025852 -0.0282025 0.0083941696
-0.0045533301 -0.100824 0.0488902
-0.0086216703 0.049503502 -0.0134892
-0.0032949999 0.111354 0.0159084
0.00718323 -0.054993901 0.114552
0.0073684598 0.12618899 -0.0123872
0.0089705 0.092437103 -0.061094601
0.0082261497 0.083270296 0.069541499
0.00218216 0.074746303 0.092886902
-0.0123809 -0.0417547 0.0146632
0.0019192999 -0.022939701 0.12759601
0.000896268 -0.103777 0.045742299
-0.0050900499 -0.123826 -0.033934198
0.00419201 -0.0128434 -0.12801901
0.0095896097 0.116999 -0.030859301
0.0046179099 -0.11461 0.0154374
-0.0100383 -0.0647889 0.0145846
-0.0122613 0.0014861299 0.036483899
-0.030174701 0.0196715 -0.0059255199
-0.0083004097 -0.115073 0.051798798
-0.0096527096 0.116468 -0.034181401
-0.0080000004 0.021538099 0.0034885299
-0.039349299 0.0125305 0.0130665
0.0091399997 -0.0048561199 0.112086
-0.0157481 -0.071009196 0.00658789
-0.0077784201 0.098252296 0.0423983
-0.00361239 0.038352601 0.114551
0.0017753 -0.0098778903 4.9255501e-05
-0.0059749698 0.092843696 0.0626195
-0.0242256 0.033422899 -0.0107434
0.00112476 -0.074260503 0.00248397
-0.0080000004 0.0051744999 0.023605
-0.0080000004 -0.0095172804 0.0033601299
-0.0093447296 0.02 -0.016604999
-0.00400062 -0.107041 0.055732202
0.0044667302 -0.122349 0.039608601
-0.0077326498 0.0192593 -0.105359
-0.015131 0.0131365 -0.075616099
0.0086899297 0.090289198 0.062973604
0.00067851302 0.00224931 0.071929201
-0.0076535302 0.035701498 0.0076236501
0.0091399997 -0.0121662 0.112613
0.0091399997 0.091488898 0.0741935
0.0079975501 -0.0221694 -0.105531
-0.0122324 0.088698298 -0.0127726
-0.0078600002 -0.0271948 -0.105964
0.00031531701 -0.078854904 -0.0088247396
-0.00039490001 -0.054939501 0.117284
0.0088875201 0.100813 0.045328598
-0.018723801 0.0482039 0.0150076
-0.00038505101 -0.122345 0.0426022
-0.015572 -0.074432597 -0.0127612
-0.0106938 0.0142809 0.042999901
0.0021555 -0.084493302 -0.00755479
-0.0084967501 -0.048824999 -0.111126
0.0096593201 -0.075226501 0.097557798
-0.0214603 0.0048652999 -0.032950301
0.0026161601 0.11021 -0.044262901
0.0021587501 0.0506997 0.107783
-0.00100978 -0.053598601 0.099088103
-0.00321779 -0.065043703 -0.111499
-0.0080000004 -0.0014454901 -0.0085360901
-0.0134306 -0.0059835901 -0.062940001
-0.011631 0.079659298 0.0057441299
-0.0129289 0.0146688 -0.060388401
0.00540919 0.0435885 -0.095139898
0.0036058 0.054366201 -0.105011
-0.0044873399 -0.120365 0.0114531
-0.0085734902 -0.0189841 0.016930699
-0.00071997999 -0.095609598 0.036938298
-0.0099155502 0.085907497 0.087654702
-0.0175374 -0.0072089499 0.063909099
-0.0089342399 0.034191702 0.116225
-0.0098072803 -0.095533103 0.078010701
-0.0096259704 0.041806798 -0.113965
0.00062135799 0.0052360902 -0.073499702
-0.00242414 -0.00062222301 -0.120509
0.0081549203 0.077229798 0.076281503
-0.0041577802 -0.00284259 0.0485266
-0.0072990302 -0.0045979498 -0.0341006
0.0090880897 -0.075934403 0.0812435
-0.0048258998 -0.052148499 -0.109074
-0.00069785502 -0.0286179 0.126257
0.0080062104 -0.0141957 0.107155
-0.0056718802 0.099607602 -0.080384001
-0.0059724599 0.127718 -0.0053714798
0.0091568502 -0.11739 0.0205297
-0.00783992 0.043598101 -0.0982107
-0.0078513697 -0.065400802 0.088549703
-0.019983299 -0.053790201 0.0095664002
0.0083708204 0.0159357 -0.124974
-0.0142394 -0.046724901 0.0058206101
0.000234163 -0.0075399 -0.00514061
-0.026771801 -0.025844799 -0.0093793804
-0.00296205 -0.00440162 -0.055400301
-0.0011290699 0.081368603 -0.062714398
-0.00127967 -0.107044 0.034978099
-0.0049282601 -0.0960107 0.085345499
-0.0055148602 0.053268999 -0.0104077
-0.00630674 0.119949 -0.0167406
-0.0137286 -0.058812801 0.0147592
0.0039983401 -0.027855599 -0.099674001
-0.0156892 0.064210698 0.0062243198
-0.0074252998 -0.100621 -0.034945302
-0.0093852803 0.111059 -0.048815399
0.0096862903 0.066286497 -0.101249
0.00189011 -0.068077102 0.109986
-0.0084370403 -0.0553459 -0.113287
0.00247739 -0.042230502 -0.111132
0.0070205098 0.097244702 -0.0422634
-0.035952698 0.018108699 -0.0074883099
-0.044427101 -0.0080077704 0.0166061
-0.0041093202 -0.0129761 -0.120258
-0.017340399 -0.058901001 0.0064710299
0.0091399997 0.108278 -0.033098299
0.0077323602 0.119773 0.0406905
-8.1635399e-06 -0.097479299 -0.057583701
-0.0020469101 -0.0844988 -0.059060901
-0.045000002 -0.00560597 -0.00051837001
-0.0063242698 0.0057568699 0.039837301
-0.0090295598 -0.120291 -0.033149201
-0.00048187299 0.0170797 0.098100901
-0.0090069901 -0.00056636601 0.121349
-0.0023082099 -0.0068878499 -0.060962599
0.0096891699 -0.098832101 -0.073534399
-0.0109235 0.094556801 0.0126152
-0.031330299 -0.0247123 0.00014632499
-0.0078600002 -0.015687101 -0.108219
-0.0046795802 0.092054702 -0.0483962
0.000961721 0.11627 0.0274643
-0.0080000004 -0.0122896 -0.0135752
0.0091399997 0.113643 0.0219729
0.0089106001 -0.043595899 -0.117584
-0.0181963 0.034693301 0.0151289
0.0035465199 -0.084043503 -0.060441401
-0.0078081698 -0.0578559 0.112924
-0.0068554701 0.0049839201 0.0808933
0.00327775 -0.106214 0.073125102
-0.00962645 0.0213787 -0.121706
-0.00096738402 -0.0161705 -0.12835599
-0.0191921 0.019500799 0.017599599
-0.0042782999 -0.115508 -0.034990899
0.00425302 0.028137701 -0.114229
0.0093360804 0.089381203 -0.080754504
-0.0096524898 0.123311 0.0072771702
-0.0016622799 0.069909103 -0.075455397
0.0045282198 -0.051436499 0.117822
-0.0062435302 0.0477251 0.094062701
-0.0121589 -0.061261099 -0.0146485
-0.0049999999 0.015869699 5.1806299e-05
-0.0020630001 -0.059646301 0.0041246698
-0.0085780397 -0.0139638 -0.100919
0.0091399997 -0.037207901 -0.109529
-0.00274109 -0.081867799 0.0131951
0.0087622497 0.124551 0.0163316
0.00332226 0.062700599 0.0956195
-0.00747036 0.0159427 -0.100849
0.0088946596 -0.110313 -0.00121657
-0.00191495 0.0168327 0.119153
-0.016028199 0.0223413 -0.015928799
-0.0075431401 0.099851497 0.078046203
0.0061228499 0.0025059399 0.0978503
0.00076421897 -0.117757 -0.020630401
-0.0061396798 -0.051055901 -0.091934301
0.0069045299 0.066845998 0.082192302
-0.00792816 -0.108858 0.0141159
-0.0075860899 -0.0044155698 -0.069813401
-0.0043126298 -0.128866 0.00162634
-0.0184252 0.012874 -0.061135098
-0.0144656 0.0086415503 -0.080281802
-0.0060219401 -0.126009 0.0210901
-0.037422001 -0.0087961601 0.0168008
0.00108338 0.0211736 -0.111698
-0.0128884 0.0147104 -0.0355221
-0.0147567 0.050433699 0.00605796
-0.0048250901 -0.1048 -0.060438599
-0.0063407798 -0.089021496 -0.067754202
-0.0148169 -0.054722998 -0.0147683
-0.0011873 0.129035 0.0086931596
-0.00195175 -0.00087981002 -0.0871832
0.0078966403 -0.084656902 -0.066381603
0.0091399997 0.100172 0.051115401
0.00302201 -0.112949 -0.0020073701
-0.00300414 -0.0243279 -0.100035
-0.0056175301 -0.074742697 0.10433
-0.0099574802 -0.088099003 -0.084953599
-0.0110164 0.095853403 -0.0120233
-0.0052441 -0.045166701 -0.094052598
-0.019447699 -0.0151019 0.043652799
0.0097112702 0.120564 -0.0138659
0.0095710801 0.1101 0.056015801
0.00044727401 -0.109185 -0.049062099
0.00055725098 0.094053403 -0.073910199
0.0042134798 -0.094195999 0.070542499
-0.018538799 -0.044313401 -0.0150406
-0.0052053202 0.0981564 -0.053941201
-0.0069232401 0.0042377398 -0.071957499
0.00083147699 0.083006203 -0.077378698
-0.0055459798 -0.118857 0.021883599
-0.0052706702 -0.060516398 -0.104573
0.0046744999 -0.055991001 -0.0875725
-0.0103374 -0.0349687 -0.0126312
-0.00652945 0.0674842 -0.081037499
0.00453868 -0.089626402 0.075969502
-0.00466411 0.060038101 0.104943
-0.0080000004 -0.018432099 0.0047386
0.00849404 -0.029723899 -0.105264
-0.037033901 -0.012447 -0.01315
-0.0097949402 -0.100498 0.00597471
-0.0316808 -0.0015500101 -0.024047
-0.0091189304 0.099891499 -0.074449398
-0.00069733302 -0.00780119 -0.119736
-0.0066667199 0.0055423798 0.127193
0.0076923398 -0.00537303 0.106768
-0.00162175 -0.0031916101 -0.096646696
0.0060654399 -0.076483399 -0.102895
-0.0059295502 0.0294961 -0.100896
0.00218313 0.118879 -0.0071085999
-0.0078600002 -0.0734099 -0.079902098
0.0052265702 -0.118345 0.049919002
-0.0010110399 0.066272102 0.091297202
-0.00036196999 -0.129434 -0.00263118
-0.0274342 -0.0170523 -0.0097239604
-0.000993978 -0.065658897 0.078795001
-0.020133199 -0.0526997 -0.0080757597
0.00943489 -0.0896824 -0.085607901
-0.00923575 -0.057085801 0.106934
-0.0033094401 0.106594 0.056680501
-0.0039506801 0.108365 -0.0076253898
0.00149024 0.045946602 0.11016
-0.0095890397 0.0112077 -0.103309
-0.0193037 0.057052001 0.0085813096
-0.00084701099 0.058665 -0.115306
-0.0252271 0.0286151 -0.0129085
-0.00348701 -0.082876101 -0.075735301
2.98009e-05 -0.126342 0.0295045
0.0050726798 0.029513599 -0.125111
-0.0082050404 -0.047362301 -0.0129563
-0.00108235 -0.12933899 -0.00930354
-0.00686533 0.095758297 -0.0052285399
-0.0048022098 -0.115179 -0.0571399
0.0047281501 -0.105498 -0.0482224
0.00083231501 0.112076 -0.0181819
0.0058781798 -0.085684098 -0.095412202
0.0020626599 0.0694649 -0.109281
-0.0082867099 -0.0040434501 -0.063571997
-0.027000001 0.022385299 -0.010417
-0.0111363 -0.00264991 0.043034799
0.000128049 0.0041894601 0.108695
0.0081240004 0.094490297 -0.052836601
0.0095600504 -0.113953 0.0477992
0.0041414001 0.0040012798 0.115141
-0.0197029 0.0151616 -0.035925999
0.0071079298 0.0439023 0.096650198
-0.0115137 0.0132864 0.0320617
-0.0017893 -0.067675702 -0.089897998
0.0091399997 0.0648579 -0.094600298
-0.0051534101 0.066335797 -0.090410903
-0.00884932 -0.055629201 -0.107622
0.00498085 -0.0110488 0.102235
-0.0121863 0.0378149 -0.0145845
-0.00781604 -0.0916401 -0.0556833
0.0018046 0.103522 0.047274102
-0.021315301 -0.047393799 -0.0085990401
0.0047020698 0.111946 0.034470499
-0.0147563 -0.043875501 -0.0058542402
0.00135338 0.110745 0.067292497
0.0075284601 0.077653497 0.100111
0.0090782596 -0.098098703 0.0524799
0.00168745 -0.024912501 0.116651
-0.0222036 0.0067606298 0.035904702
-0.0101637 0.067219898 -0.0054168599
-0.00078869698 0.097136699 -0.00246943
0.0057209199 -0.101613 0.026505901
-0.045000002 0.00025849699 -0.0139825
0.0099082803 0.120024 -0.019926401
-0.018985201 -0.0136302 0.057672199
-0.0036883999 0.045596998 -0.120741
-0.0094957203 0.0105371 0.104147
0.0024000001 -0.00149029 -0.0059544202
-0.0060217199 -0.080005303 0.067919798
-0.0078600002 -0.0529094 0.096246399
0.0043621501 -0.017070601 0.102204
-0.0218434 -0.042373698 0.0144336
-0.0139216 -0.040849298 -0.0149631
-0.0097484104 -0.102563 0.064889699
-0.0090233404 -0.109112 0.0611564
0.00256816 0.074289002 -0.0865191
-0.045000002 0.0044367202 0.0080843298
-0.0099746296 -0.097705498 -0.072776102
0.0048109 -0.114086 0.024016799
-0.013061 -0.0358948 -0.0029866099
-0.011282 -0.095569 -0.0103232
-0.0081225904 0.073680498 0.0142711
-0.0107371 0.023362201 0.0146162
-0.00172534 -0.035991099 -0.114836
0.00192111 0.0372632 -0.095945701
0.000870416 -0.089795403 0.0114628
-0.0094272504 0.0041742702 -0.058475502
0.00292212 -0.104875 -0.055358998
-0.000353296 -0.098287798 -0.017177399
0.00240186 -0.10071 0.053397
0.00091948902 -0.0233915 0.099979497
-0.0049999999 0.0147563 -0.0070744199
-0.040991399 0.016628999 -0.0089680003
-0.0060302201 0.0988416 0.0356365
0.0091399997 -0.037246902 0.110406
0.000294525 -0.0022225601 -0.12968799
-0.0059813801 0.047506198 -0.0088939797
-0.0092677902 0.093879797 0.081754401
-0.0135187 0.0151185 0.024454501
0.0042153201 0.043109398 0.121222
-0.00924352 0.04211 -0.0128407
0.00187367 -0.095938399 0.0119026
-0.00318454 -0.108082 -0.053453598
-0.0024731399 0.120461 -0.00457511
-0.0054008299 -0.0238261 -0.10947
-0.00077323703 -0.0033364701 -0.065491602
-0.0052706501 -0.107016 -0.032800999
0.0040323702 -0.0190336 -0.113427
-0.0122763 -0.0141118 -0.076732904
0.0028391101 -0.072214901 0.088465303
-0.0075374399 0.0053821402 0.121179
-0.00139517 -0.091815203 -0.0135088
0.0085086599 0.0293983 0.105388
0.0034346201 -0.074772298 0.105356
-0.0048185098 0.095447898 -0.040869702
0.0047172201 0.116465 0.055031501
-0.045000002 -0.00216103 0.00777354
0.0091399997 -0.0280418 -0.114732
0.00073132099 -0.028213499 -0.116291
0.0094105499 0.118125 -0.038290799
-0.0418244 0.0103238 -0.0152732
-0.0081327297 0.0142457 -0.107856
0.00610147 0.0349898 -0.123285
-0.0035169099 0.110142 0.021860201
0.0091399997 -0.0237041 0.109762
0.0084299203 0.0348364 -0.10366
-0.00014282401 -0.0494303 -0.109473
-0.027000001 0.00924497 -0.0216283
-0.00593476 -0.105528 0.0371265
-0.0057633701 0.0050232401 -0.097002201
0.0091399997 0.034208398 0.108619
0.0047363499 -0.128492 -0.0079057897
0.0091927303 -0.119271 0.00644544
-0.0080750799 -0.12638099 -0.0062733502
-0.0076639201 -0.118065 -0.0279916
-0.00333816 0.072153002 0.0125628
-0.0142587 0.016731501 -0.0208025
-0.0063700899 0.115242 -0.055187602
0.00153278 0.025580499 -0.12692
0.0091399997 0.0748972 0.088928699
-0.00384426 -0.00125697 -0.049021501
0.0091399997 0.041027501 0.107077
-0.0145243 0.0571054 -0.0148025
-0.00581777 -0.0475154 0.0936938
-0.0074332198 0.019969501 0.10436
-0.00763806 -0.097025499 -0.044587702
0.00372585 -0.00336437 -0.087543502
0.0047090398 0.00078413798 0.090038396
0.0065558199 -0.043072 0.096460998
-0.022952201 0.032745801 -0.0046894401
0.0023572501 -0.097424999 0.0595144
-0.0107047 -0.0030493599 -0.0464302
-0.015204 0.0126847 0.076192401
-0.00051025802 0.123174 -0.040220302
0.0059507499 0.0211138 -0.12639301
0.0069458401 0.084977902 0.063641697
0.0030185301 0.067538597 -0.092331
-0.0022959299 0.084699601 0.097779699
0.00105836 -0.0145027 -0.118855
-0.00317762 -0.054878 -0.0047941599
-0.016410699 0.0105544 -0.070942499
-0.0080000004 0.0041099498 0.0051771901
-0.00149952 -0.108375 0.070500202
-0.0042872601 -0.100515 0.0217638
-0.0099188099 -0.117473 0.035418399
-0.0061287601 -0.0284147 0.124528
-0.019162901 -0.057728801 -0.0110406
0.0046066698 0.100972 0.079537801
-0.0077378899 0.0143186 0.096323498
0.0093345698 0.105367 0.0661982
0.0075932001 0.109916 -0.062702902
0.0017420599 0.121512 0.044502199
-0.0090187499 -0.0140519 0.078266203
-0.00286309 0.0153361 -0.119577
0.00153022 0.096532203 -0.086755402
-0.00270905 -0.112449 -0.044139601
-0.0106877 0.0055456399 0.090605997
0.0045616301 0.0071181599 0.0956567
0.0023382099 -0.102602 0.0608855
-0.0090208398 0.071186498 -0.10247
0.0090988604 0.077822901 -0.098126397
0.00299088 0.114704 -0.0592307
-0.0047381599 -0.11979 -0.0153347
0.0089315902 -0.071724802 -0.084215596
-0.00665431 -0.109811 -0.0208
0.0062584602 0.098816097 -0.0366937
0.00823313 0.123691 -0.023868499
