# .PCD v0.7 - Point Cloud Data file format
VERSION 0.7
FIELDS x y z
SIZE 4 4 4
TYPE F F F
COUNT 1 1 1
WIDTH 1738
HEIGHT 1
VIEWPOINT 0 0 0 1 0 0 0
POINTS 1738
DATA ascii
2.4506099 -0.65051401 1.27574
2.4407401 -0.62496001 1.27779
2.43644 -0.60192698 1.27869
2.43823 -0.58136499 1.27832
2.4532001 -0.56547701 1.27521
2.68573 -0.62167001 1.22683
2.6751599 -0.59437102 1.22903
2.6805 -0.57239002 1.2279201
2.67942 -0.54854798 1.22815
2.6833501 -0.52629602 1.22734
2.68556 -0.503631 1.22688
2.6882999 -0.48118699 1.22631
2.6719301 -0.454142 1.22972
2.67432 -0.43197501 1.22923
2.6738801 -0.40924501 1.22932
2.6848099 -0.388993 1.2270499
2.68662 -0.36680299 1.22668
2.6890399 -0.344778 1.22618
2.6711199 -0.31930399 1.22991
2.68454 -0.29933399 1.22712
2.6808901 -0.27660999 1.22788
2.6893001 -0.25567701 1.22614
2.68964 -0.233615 1.22607
2.6817501 -0.21068799 1.22771
2.6765399 -0.18826801 1.2288001
2.68327 -0.167073 1.2273999
2.6856401 -0.145429 1.22691
2.6753299 -0.122948 1.2290601
2.67624 -0.101333 1.22887
2.68785 -0.080163598 1.22646
2.4848199 -0.0524101 1.2687
2.4497499 -0.032407101 1.276
2.4378901 -0.0133734 1.27847
2.4370501 0.0054415902 1.27864
2.46069 0.024660399 1.27373
2.6856101 0.050251499 1.22694
2.6754 0.071573399 1.2290699
2.67799 0.093345501 1.22853
2.6774001 0.115 1.22866
2.6855099 0.13733099 1.22697
2.69205 0.159752 1.22562
2.67395 0.179924 1.22938
2.68483 0.20293599 1.22712
2.6744299 0.223645 1.22929
2.6782 0.246076 1.22851
2.6885099 0.269622 1.22637
2.6889999 0.29192999 1.22627
2.6751399 0.31188199 1.2291501
2.68771 0.336411 1.22654
2.6894 0.35921401 1.2262
2.6888499 0.381697 1.22631
2.6784699 0.40211701 1.22848
2.6882501 0.427057 1.22644
2.6879499 0.449898 1.22651
2.6888499 0.47316399 1.22633
2.69328 0.49753401 1.22541
2.6805999 0.517349 1.22805
2.68362 0.54159802 1.22742
2.67805 0.563447 1.22858
2.6849401 0.58929199 1.22715
2.6802599 0.61164302 1.22813
2.6767399 0.63445002 1.22886
2.6844399 0.66136497 1.22727
2.6900899 0.68791699 1.2261
2.68205 0.70956397 1.22777
2.68415 0.73523903 1.22734
2.6840799 0.76030499 1.22735
2.6846499 0.78586698 1.22724
2.68909 0.81338799 1.22632
2.68822 0.83887899 1.2265
2.67835 0.86041301 1.22856
2.6886201 0.89162099 1.2264301
2.6889501 0.91848397 1.22636
2.4858601 0.84205502 1.2686
2.4674201 0.856731 1.27244
2.45263 0.87311399 1.27552
2.4412 0.89120501 1.2779
2.4518001 0.92179197 1.2757
2.6940701 1.08841 1.22532
2.6967299 1.11915 1.2247699
2.68221 1.13978 1.22779
2.6898899 1.17439 1.2262
2.6834099 1.20049 1.22755
2.6941099 1.23824 1.22533
2.6849301 1.26326 1.22724
2.69543 1.3021899 1.22507
2.6933601 1.3329901 1.2255
2.6895001 1.3629301 1.22631
2.6863799 1.3938299 1.2269599
2.6954401 1.43454 1.22508
2.6972201 1.47043 1.22471
2.6902699 1.49997 1.22616
2.6960101 1.54037 1.22497
2.6888299 1.57073 1.22647
2.6865799 1.60576 1.22695
2.68559 1.64254 1.22716
2.6949699 1.68943 1.22521
2.69262 1.72663 1.2257
2.6919701 1.76616 1.22584
2.67098 -1.79714 1.21842
2.67331 -1.7587399 1.21793
2.6761501 -1.72157 1.21732
2.66888 -1.67593 1.21889
2.6761601 -1.6442699 1.21733
2.66798 -1.59966 1.21909
2.67749 -1.57109 1.21706
2.67118 -1.52973 1.21842
2.67872 -1.50049 1.2168
2.6686499 -1.45768 1.2189699
2.68068 -1.4329 1.21639
2.68187 -1.4001 1.21614
2.67259 -1.3601201 1.21813
2.68027 -1.3331701 1.21649
2.6719301 -1.29527 1.21828
2.6784 -1.26826 1.2169
2.6753299 -1.23516 1.2175601
2.6707399 -1.20162 1.21855
2.6761999 -1.17504 1.2173899
2.67623 -1.14536 1.21738
2.67152 -1.11323 1.2184
2.6823399 -1.09074 1.21608
2.6759 -1.05845 1.21746
2.6845801 -1.03511 1.21561
2.67275 -1.00077 1.21815
2.6847799 -0.97966403 1.21557
2.6721301 -0.94591099 1.21829
2.66959 -0.917858 1.21883
2.6742301 -0.89362901 1.21784
2.68331 -0.87163001 1.2158999
2.6753299 -0.79070997 1.21762
2.6862099 -0.76996303 1.21529
2.4538901 -0.65218401 1.2651
2.42819 -0.620471 1.27061
2.43068 -0.600115 1.27008
2.44943 -0.58570302 1.26606
2.45625 -0.56684601 1.2646
2.6854801 -0.62198901 1.21547
2.68382 -0.59752399 1.21583
2.67395 -0.57074702 1.21795
2.68484 -0.550497 1.21561
2.67186 -0.523399 1.2184
2.6707201 -0.49996299 1.21865
2.6717501 -0.477249 1.21843
2.6851101 -0.457656 1.21557
2.6801 -0.43359599 1.21665
2.6756301 -0.409895 1.21761
2.67607 -0.38743201 1.21752
2.6900401 -0.36771101 1.21452
2.6800699 -0.343357 1.21666
2.6733601 -0.319895 1.2181
2.6798799 -0.298787 1.21671
2.6795101 -0.27658701 1.21679
2.6786301 -0.254399 1.21698
2.6790299 -0.232458 1.2169
2.6838801 -0.211064 1.21586
2.6800301 -0.188742 1.2166899
2.6854899 -0.16738001 1.21553
2.68064 -0.145144 1.21657
2.6847301 -0.123639 1.21569
2.67994 -0.101598 1.21672
2.6877 -0.080213003 1.21506
2.47877 -0.052265599 1.25984
2.43679 -0.0321985 1.26884
2.44379 -0.0134219 1.2673399
2.44453 0.00548098 1.26719
2.45979 0.024653601 1.2639199
2.67572 0.049993102 1.2176501
2.68262 0.071908303 1.21617
2.6861999 0.093830504 1.21541
2.6802199 0.11525 1.2166899
2.6788399 0.13690799 1.21699
2.68836 0.159527 1.21495
2.68098 0.180733 1.21654
2.68067 0.20259801 1.21661
2.6842301 0.224987 1.21585
2.6910701 0.24796399 1.21438
2.68613 0.26944101 1.21544
2.68993 0.29225999 1.21463
2.69139 0.31485 1.2143199
2.6763899 0.33455199 1.21754
2.6925299 0.36005199 1.21408
2.6812 0.38035399 1.21652
2.6849899 0.40379801 1.21571
2.6808901 0.42561999 1.21659
2.6889999 0.45043901 1.2148499
2.6784101 0.47079 1.2171299
2.6893599 0.496797 1.21478
2.68381 0.51857799 1.21597
2.6872699 0.54301298 1.21524
2.6832099 0.56538397 1.21611
2.6916499 0.59180403 1.2143
2.6837399 0.61318499 1.216
2.69467 0.64103597 1.21366
2.6788399 0.65977901 1.21706
2.68068 0.68486202 1.21667
2.6884501 0.71247298 1.21501
2.67782 0.73318899 1.21729
2.6837699 0.76065898 1.21601
2.67957 0.784208 1.21692
2.6904099 0.81448197 1.2146
2.69049 0.840442 1.2145801
2.68506 0.86409098 1.21575
2.6865699 0.89120299 1.21543
2.67993 0.91460198 1.2168601
2.48807 0.84365499 1.25796
2.4735601 0.86042398 1.26108
2.4551401 0.874942 1.26503
2.44205 0.89215797 1.26783
2.46047 0.92723101 1.26389
2.6939399 1.08903 1.2138799
2.68749 1.11431 1.21526
2.69227 1.14671 1.21424
2.68314 1.1708601 1.2162
2.6965101 1.20976 1.21334
2.6812301 1.23046 1.21662
2.6955099 1.2712801 1.21357
2.6831999 1.29448 1.21621
2.69348 1.33393 1.21401
2.68664 1.3617001 1.21548
2.69328 1.3999 1.2140599
2.6842301 1.42682 1.216
2.6845 1.46135 1.21595
2.6845 1.49628 1.21595
2.6845901 1.53192 1.21594
2.68696 1.57015 1.21544
2.6882701 1.60825 1.21516
2.6944399 1.65144 1.21384
2.6880701 1.68426 1.21521
2.694 1.72902 1.21395
2.6965301 1.77162 1.21341
2.6665299 -1.79371 1.2108901
2.66976 -1.75625 1.2101901
2.6691999 -1.71597 1.21032
2.6661301 -1.67426 1.211
2.67396 -1.64314 1.20929
2.6665599 -1.5992301 1.21091
2.67665 -1.57117 1.20871
2.66767 -1.5276 1.21068
2.67453 -1.4978499 1.20918
2.6742301 -1.4628201 1.20925
2.6786001 -1.4320101 1.2083
2.6688499 -1.39099 1.21044
2.6730101 -1.36111 1.20953
2.6777 -1.33201 1.20851
2.6676099 -1.29289 1.2107199
2.68311 -1.27212 1.20733
2.6809299 -1.2395101 1.20781
2.67711 -1.20637 1.20865
2.6740601 -1.17428 1.2093199
2.6836801 -1.15054 1.20722
2.6759501 -1.11646 1.20892
2.68483 -1.09276 1.20698
2.6764901 -1.05932 1.20881
2.6819999 -1.0342 1.2076
2.6775899 -1.00389 1.20857
2.67606 -0.97557402 1.20891
2.6773701 -0.949067 1.20863
2.67504 -0.92102599 1.2091399
2.67906 -0.89641201 1.20827
2.67626 -0.86877197 1.2088799
2.3152201 -0.65811098 1.28799
2.6817601 -0.79384899 1.20769
2.67186 -0.76443398 1.20986
2.4501901 -0.650994 1.25843
2.43208 -0.62224001 1.2624
2.4327199 -0.60113603 1.26226
2.444 -0.58401197 1.2597899
2.4554501 -0.56682003 1.25729
2.6825199 -0.62132102 1.20754
2.6852701 -0.59829003 1.2069499
2.6710601 -0.57014698 1.21006
2.6851101 -0.55085701 1.20699
2.67383 -0.52421802 1.20946
2.6836901 -0.50370997 1.2072999
2.68591 -0.48113099 1.20682
2.6736 -0.45507401 1.20952
2.68064 -0.43394101 1.20798
2.67819 -0.41066501 1.2085201
2.68118 -0.38869101 1.20787
2.67994 -0.365922 1.20814
2.6877 -0.344933 1.20644
2.68136 -0.32143 1.20784
2.6897099 -0.30050799 1.20601
2.6842899 -0.27743399 1.2072001
2.67273 -0.25372899 1.20974
2.6791899 -0.23259699 1.20832
2.6750901 -0.210189 1.2092201
2.68013 -0.188849 1.20812
2.6909699 -0.16795 1.20575
2.6835899 -0.145445 1.20737
2.6787601 -0.123317 1.2084301
2.68466 -0.101902 1.20714
2.6780901 -0.0798591 1.20859
2.477 -0.052239198 1.25263
2.4370601 -0.032219999 1.26138
2.43823 -0.0133962 1.26113
2.44486 0.0054824702 1.25968
2.45454 0.024571201 1.25756
2.68928 0.050408602 1.2061501
2.6798699 0.071830302 1.20821
2.6824601 0.093680002 1.2076499
2.6907499 0.115981 1.20584
2.6763899 0.13678899 1.20899
2.6866701 0.159456 1.20674
2.68537 0.18125799 1.20702
2.69274 0.204042 1.20541
2.6902001 0.225834 1.20597
2.67662 0.24613699 1.20895
2.68139 0.268879 1.2079099
2.68172 0.29110199 1.20784
2.6861501 0.31411099 1.20687
2.6793201 0.33525401 1.20837
2.6923399 0.36019501 1.20552
2.68576 0.38148701 1.20697
2.69262 0.40567499 1.20546
2.69396 0.42886201 1.20517
2.69367 0.451803 1.20524
2.6774199 0.47077101 1.2088
2.6835301 0.495478 1.2074701
2.6937599 0.52163702 1.20523
2.6891301 0.543832 1.20625
2.6904299 0.567882 1.20597
2.68736 0.59073001 1.20664
2.69503 0.61724401 1.20496
2.6814899 0.63680899 1.20793
2.69331 0.665295 1.20535
2.68663 0.687415 1.20681
2.6940401 0.71498698 1.2051899
2.6872101 0.73729497 1.20669
2.6840999 0.76117599 1.2073801
2.68256 0.78587401 1.20772
2.6782701 0.80955797 1.20866
2.68259 0.83728099 1.20772
2.68577 0.86485499 1.2070301
2.6907699 0.893673 1.20593
2.6937201 0.92189699 1.20529
2.4816799 0.84076601 1.25172
2.4651999 0.85641402 1.25534
2.4556899 0.87562001 1.2574199
2.4493301 0.89658302 1.2588201
2.46345 0.92933702 1.25573
2.68998 1.08726 1.20613
2.6802199 1.1105 1.20827
2.69414 1.14844 1.20523
2.6832099 1.1715 1.20763
2.6959901 1.2100199 1.2048301
2.6942999 1.23979 1.20521
2.68331 1.2636 1.20762
2.68185 1.29418 1.20794
2.6853099 1.32875 1.20719
2.68312 1.3598 1.20767
2.6935101 1.40078 1.2054
2.6979001 1.43808 1.20444
2.6929901 1.46878 1.20552
2.6940501 1.50475 1.20529
2.6870999 1.53476 1.20682
2.6919799 1.5751899 1.20576
2.68747 1.6083699 1.20675
2.68663 1.64534 1.2069401
2.6858499 1.68309 1.20711
2.69348 1.7294101 1.2054501
2.6913199 1.76757 1.20593
2.6760399 -1.80344 1.20454
2.6719 -1.7587399 1.20546
2.66926 -1.71647 1.2060601
2.67574 -1.68343 1.20463
2.66679 -1.6372 1.20661
2.6697099 -1.60238 1.20597
2.6786599 -1.57328 1.20399
2.67764 -1.53625 1.2042201
2.68116 -1.50361 1.20345
2.68173 -1.46912 1.20333
2.6684201 -1.42452 1.20628
2.6732199 -1.39464 1.20522
2.6730199 -1.36147 1.2052701
2.66764 -1.32512 1.20647
2.66872 -1.294 1.20623
2.68291 -1.27231 1.20309
2.66852 -1.23155 1.20628
2.6742001 -1.20479 1.20503
2.6842 -1.18102 1.2028199
2.67172 -1.14345 1.20558
2.67764 -1.11777 1.20428
2.68331 -1.09215 1.20303
2.67202 -1.05704 1.20553
2.6765599 -1.03144 1.20453
2.66977 -0.99992198 1.20604
2.6785901 -0.977157 1.20409
2.6705501 -0.94582403 1.20587
2.67395 -0.92072201 1.20512
2.6725199 -0.89348799 1.20544
2.66997 -0.86604899 1.20601
2.3041999 -0.67396498 1.28701
2.3195801 -0.660164 1.28361
2.6780701 -0.79248202 1.2042201
2.6837299 -0.76953101 1.20297
2.4496901 -0.65094399 1.2548
2.4377699 -0.62457502 1.25745
2.4302199 -0.600339 1.25912
2.4456301 -0.58472699 1.25571
2.4546001 -0.56665403 1.2537301
2.6880701 -0.62333 1.2020299
2.6774001 -0.59592599 1.2043999
2.6768999 -0.572092 1.20451
2.67716 -0.54865497 1.20446
2.6847301 -0.52743101 1.20279
2.67769 -0.50222301 1.20435
2.6791699 -0.47952399 1.20402
2.68436 -0.45782501 1.20288
2.6791899 -0.433716 1.20402
2.68712 -0.41273901 1.20227
2.6845601 -0.389496 1.20284
2.6839399 -0.36680001 1.20298
2.67941 -0.34349999 1.20399
2.6830299 -0.32180101 1.20319
2.6886599 -0.30041999 1.2019399
2.6891601 -0.27822599 1.20184
2.6849999 -0.25545999 1.20276
2.68097 -0.232878 1.20366
2.6724 -0.20994399 1.20556
2.6717999 -0.18806501 1.20569
2.68554 -0.16751499 1.20265
2.67398 -0.144748 1.20521
2.68309 -0.12363 1.2032
2.6851001 -0.101952 1.20276
2.68398 -0.080123797 1.20301
2.4746599 -0.052182999 1.24935
2.4367299 -0.0322221 1.25775
2.43064 -0.0133533 1.25911
2.4398301 0.0054549901 1.2570699
2.4560201 0.0246015 1.25349
2.68101 0.050181702 1.20368
2.68067 0.071881004 1.20376
2.67571 0.093349703 1.20486
2.68857 0.115871 1.20202
2.68841 0.13773701 1.20206
2.69118 0.159894 1.20144
2.6770301 0.180474 1.2045799
2.6784 0.20249701 1.20428
2.68629 0.225411 1.20254
2.6861899 0.247493 1.2025599
2.6761601 0.268179 1.20479
2.6812401 0.2911 1.20366
2.6804199 0.31321299 1.20385
2.68505 0.33638901 1.20283
2.6935201 0.36051801 1.20095
2.6790299 0.380191 1.20416
2.68402 0.403891 1.20306
2.6881499 0.42762601 1.20215
2.68873 0.45071399 1.2020299
2.68521 0.47288999 1.20281
2.68855 0.49695799 1.20207
2.68361 0.51891398 1.2031699
2.6875801 0.54351598 1.2022901
2.68085 0.56508797 1.2037899
2.6777301 0.587807 1.2044801
2.6805301 0.61258101 1.20386
2.6882401 0.639305 1.20216
2.68346 0.66193599 1.20322
2.6835101 0.68643397 1.20321
2.6777201 0.70888501 1.2045
2.6788599 0.73415899 1.20425
2.6914599 0.76440799 1.20146
2.68523 0.78721303 1.20284
2.6817601 0.81130397 1.20362
2.68785 0.83988702 1.20227
2.6815901 0.86312503 1.20366
2.68064 0.88902199 1.2038701
2.69134 0.920959 1.20151
2.48189 0.84107101 1.24787
2.46895 0.85858202 1.2507401
2.4445701 0.86980999 1.25614
2.4451599 0.89447099 1.2560101
2.4502699 0.922032 1.25488
2.69102 1.08815 1.2016
2.6810999 1.11132 1.2038
2.6817701 1.1411 1.20366
2.6950099 1.17927 1.20073
2.68941 1.2060699 1.20197
2.6935599 1.23962 1.2010601
2.6906199 1.2689199 1.20171
2.68204 1.29465 1.20362
2.6888399 1.33163 1.2021199
2.6975701 1.37077 1.2001899
2.69239 1.4003 1.20134
2.6933501 1.43494 1.20113
2.68361 1.46176 1.20329
2.69631 1.50697 1.20048
2.6882 1.53607 1.20228
2.6898601 1.5738 1.20192
2.68714 1.6085 1.20253
2.68927 1.64812 1.20206
2.6917 1.68884 1.20153
2.6990299 1.73502 1.19991
2.6959901 1.77247 1.20059
2.6716101 -1.7996401 1.20079
2.6679599 -1.7555 1.20162
2.67907 -1.72611 1.1991301
2.6661601 -1.67521 1.2020299
2.67925 -1.64876 1.1991
2.6728699 -1.60559 1.2005399
2.66696 -1.56381 1.20186
2.67576 -1.5351501 1.1999
2.6761701 -1.5 1.19981
2.67875 -1.4672 1.19924
2.67311 -1.42856 1.20051
2.67766 -1.3983999 1.19949
2.6803801 -1.36729 1.19888
2.67697 -1.3322099 1.19965
2.6826999 -1.30419 1.19837
2.67155 -1.26491 1.2008801
2.6728799 -1.23482 1.20058
2.67152 -1.2034 1.2008899
2.6752601 -1.1756901 1.20005
2.6807899 -1.14939 1.19882
2.6689601 -1.11287 1.20147
2.6784401 -1.08961 1.19935
2.66927 -1.0557801 1.2014101
2.6709499 -1.02863 1.20104
2.67114 -1.00096 1.201
2.6851699 -0.98090702 1.19786
2.6838701 -0.95291901 1.1981601
2.6794901 -0.92374599 1.19914
2.67892 -0.89683902 1.19927
2.6844399 -0.87308502 1.19804
2.29458 -0.66974699 1.2854
2.3013201 -0.652273 1.28389
2.66977 -0.78917402 1.20134
2.68647 -0.77088797 1.1976
2.43893 -0.64681101 1.25307
2.44485 -0.62746698 1.25174
2.4368701 -0.60296899 1.25353
2.4384401 -0.582295 1.25318
2.4591899 -0.56839103 1.24854
2.6702001 -0.61755699 1.20126
2.6852701 -0.59862202 1.19789
2.6874101 -0.575495 1.19741
2.6831601 -0.55058903 1.19837
2.6826 -0.52698499 1.1985
2.68045 -0.50311702 1.19898
2.68275 -0.48058599 1.19847
2.6879101 -0.45883 1.19731
2.6870501 -0.435673 1.19751
2.6876299 -0.412972 1.1973799
2.67785 -0.38821399 1.19958
2.68309 -0.36674201 1.19841
2.68922 -0.34540501 1.19704
2.6900001 -0.32309201 1.19686
2.6847 -0.299876 1.19805
2.6733899 -0.27597901 1.20059
2.67419 -0.25406799 1.20041
2.68434 -0.233364 1.19814
2.6907799 -0.212064 1.1967
2.6865101 -0.189593 1.19766
2.6765201 -0.166768 1.1999
2.6888199 -0.145928 1.19715
2.6875601 -0.123956 1.19744
2.6770201 -0.101553 1.1998
2.6898701 -0.080390804 1.19692
2.4821601 -0.052418798 1.2434601
2.4363101 -0.032223102 1.2537301
2.4440501 -0.0134398 1.252
2.43486 0.0054284399 1.25406
2.4480801 0.024470501 1.2510999
2.6800101 0.050167602 1.19915
2.67644 0.071729802 1.19995
2.6760099 0.093393102 1.20005
2.67905 0.115294 1.19937
2.6904099 0.13793001 1.19683
2.68928 0.15977401 1.19709
2.68981 0.18179999 1.19697
2.6840799 0.20319 1.1982599
2.68803 0.225692 1.1973799
2.6875701 0.247752 1.19748
2.6823299 0.26916599 1.19866
2.6762099 0.29038599 1.20003
2.6809499 0.31339699 1.19897
2.6817901 0.33589199 1.19879
2.67629 0.35725999 1.20002
2.6756401 0.37959999 1.20017
2.6842999 0.404073 1.19823
2.67945 0.425735 1.19932
2.6886599 0.45083201 1.19726
2.68449 0.472844 1.1982
2.6942201 0.49862999 1.19602
2.69364 0.52189398 1.19616
2.68242 0.54215699 1.19867
2.6907599 0.56830001 1.19681
2.67994 0.588687 1.19924
2.68103 0.61293 1.19899
2.6866 0.638928 1.19775
2.68524 0.662772 1.19806
2.6782801 0.68469 1.19962
2.6897199 0.713718 1.19706
2.6914101 0.73938102 1.1966799
2.68537 0.76212299 1.19804
2.6931601 0.79082203 1.1963
2.6944201 0.81711102 1.19602
2.69098 0.84155399 1.1968
2.6912301 0.86789399 1.19674
2.69139 0.89446598 1.19671
2.6884201 0.91978103 1.1973799
2.47877 0.83969498 1.24433
2.4635899 0.85598302 1.24774
2.4428999 0.86912799 1.25237
2.4479301 0.896236 1.25125
2.4582901 0.92684799 1.24893
2.6898799 1.08781 1.19707
2.6808801 1.11151 1.19909
2.6907899 1.14701 1.19688
2.6909499 1.17705 1.1968499
2.68943 1.20644 1.19719
2.6949201 1.24089 1.19596
2.68661 1.2665499 1.19783
2.6975801 1.30592 1.19538
2.6949799 1.33643 1.19596
2.68624 1.36285 1.19792
2.68749 1.39703 1.19765
2.6920099 1.43434 1.19664
2.6898701 1.46714 1.19712
2.6919601 1.5039001 1.19666
2.68556 1.53434 1.1981
2.6974001 1.58067 1.1954499
2.6935599 1.61455 1.1963201
2.6963999 1.65493 1.19569
2.6945 1.69189 1.19612
2.68594 1.72337 1.19804
2.69488 1.77194 1.19604
2.6754701 -1.80439 1.19139
2.6732199 -1.76147 1.1919
2.67786 -1.72592 1.19085
2.6740401 -1.6833 1.19173
2.67659 -1.64729 1.19115
2.6777401 -1.6107 1.19089
2.6698301 -1.56709 1.19271
2.66906 -1.5304199 1.19289
2.6673999 -1.4937201 1.19327
2.6749599 -1.46501 1.19154
2.6684501 -1.42574 1.19304
2.6814799 -1.40205 1.19006
2.6826899 -1.36974 1.18979
2.6824901 -1.33691 1.18984
2.6745 -1.29915 1.1916699
2.67188 -1.26583 1.1922801
2.6758699 -1.2374901 1.19137
2.6687801 -1.20226 1.1929899
2.67224 -1.17441 1.19221
2.67941 -1.14917 1.19057
2.67645 -1.11799 1.19125
2.67981 -1.09101 1.19048
2.6719899 -1.05791 1.1922801
2.6737399 -1.03074 1.19188
2.6823001 -1.00755 1.1899199
2.6783299 -0.977844 1.19084
2.6819301 -0.95244598 1.19002
2.6737299 -0.92138702 1.1919
2.6735699 -0.89474499 1.1919399
2.67661 -0.86988902 1.19124
2.2967501 -0.67101699 1.27817
2.31688 -0.65941399 1.27356
2.68647 -0.79673702 1.189
2.66945 -0.764274 1.1928999
2.4486599 -0.65101397 1.24342
2.44033 -0.62602001 1.24533
2.4439001 -0.60588199 1.2445101
2.4511499 -0.58714497 1.24286
2.46438 -0.57046598 1.23983
2.6853199 -0.62294197 1.18928
2.6751599 -0.595707 1.19161
2.6875401 -0.57585198 1.18878
2.6842699 -0.55121702 1.18953
2.6751399 -0.52516598 1.19162
2.68712 -0.505193 1.18889
2.6742401 -0.47865799 1.1918401
2.6807699 -0.457333 1.19034
2.67823 -0.43386 1.19093
2.6758599 -0.410606 1.19147
2.68629 -0.39018399 1.18909
2.6726501 -0.36489701 1.19221
2.68593 -0.344989 1.18918
2.68081 -0.32169101 1.1903501
2.6772799 -0.29885501 1.19116
2.6732299 -0.276106 1.19209
2.67748 -0.254655 1.19112
2.6886201 -0.234024 1.18858
2.6884501 -0.21191999 1.18862
2.68344 -0.189391 1.18977
2.6749499 -0.16672 1.19171
2.6779201 -0.145172 1.19104
2.6872599 -0.124005 1.1889
2.67487 -0.101495 1.19174
2.6775301 -0.079925098 1.1911401
2.48318 -0.052475899 1.2356
2.4441099 -0.0323794 1.24454
2.44627 -0.0134611 1.24405
2.44328 0.0054764901 1.24473
2.4500999 0.0245158 1.24318
2.68822 0.050432298 1.18871
2.6812601 0.071964704 1.1903
2.6868999 0.094015203 1.18901
2.6873901 0.115892 1.18891
2.6769199 0.136979 1.1913
2.69244 0.160138 1.18776
2.68558 0.181477 1.18933
2.6812999 0.20299 1.19031
2.6839001 0.22530501 1.18972
2.6744001 0.246106 1.19189
2.68696 0.26999399 1.18902
2.68062 0.291246 1.19048
2.67661 0.31282401 1.1914001
2.68311 0.336317 1.1899101
2.69068 0.36026701 1.18818
2.68308 0.38135099 1.18993
2.6854501 0.40454501 1.1893899
2.6779499 0.42561999 1.1911
2.6812699 0.44927099 1.1903501
2.6833601 0.47281501 1.18987
2.68975 0.49770001 1.18841
2.6847799 0.51968199 1.18955
2.6895399 0.54455203 1.18847
2.6860499 0.56716198 1.18927
2.6877301 0.59150398 1.18889
2.69488 0.61787897 1.18725
2.68276 0.63794702 1.19003
2.68191 0.66193599 1.19023
2.6940701 0.69094503 1.1874501
2.69379 0.71568298 1.18752
2.68997 0.73921001 1.1884
2.69047 0.76464599 1.18828
2.68362 0.78719002 1.18985
2.6850901 0.81345201 1.18952
2.6858101 0.83966798 1.18936
2.6872699 0.86651599 1.1890301
2.68507 0.891909 1.18954
2.6795101 0.91585702 1.19081
2.48927 0.84547597 1.23432
2.4707401 0.86016297 1.23856
2.4395299 0.86772102 1.2457
2.4458699 0.89552099 1.2442501
2.45351 0.92456299 1.24251
2.6828599 1.08428 1.19007
2.6967199 1.12166 1.1869
2.6809001 1.14153 1.19052
2.69051 1.17742 1.1883301
2.68946 1.2071199 1.18857
2.6839499 1.2342499 1.18984
2.69608 1.27373 1.18707
2.69664 1.30598 1.18694
2.69644 1.33822 1.18699
2.68803 1.36492 1.18892
2.69256 1.40162 1.1878901
2.6895101 1.4332 1.18859
2.69807 1.47443 1.18664
2.6930101 1.5055799 1.1878
2.6951399 1.54313 1.18731
2.6876199 1.57324 1.1890399
2.6925099 1.61453 1.18793
2.6942501 1.65394 1.18753
2.6984401 1.6964 1.1865799
2.6890099 1.72716 1.18874
2.68524 1.7637399 1.18961
2.67471 -1.80416 1.1872801
2.6756799 -1.76431 1.18707
2.67063 -1.7196701 1.1882401
2.6763599 -1.68589 1.18692
2.66979 -1.64169 1.18844
2.6776199 -1.61105 1.18664
2.67679 -1.57345 1.18683
2.6692901 -1.53104 1.18857
2.67974 -1.50414 1.18616
2.66891 -1.46062 1.18867
2.6688199 -1.42642 1.1886899
2.67661 -1.39876 1.1869
2.67292 -1.36292 1.18776
2.6726 -1.33017 1.18783
2.68257 -1.30518 1.1855299
2.67208 -1.26632 1.18796
2.6759901 -1.23792 1.18706
2.6774199 -1.20824 1.18673
2.67169 -1.17439 1.18806
2.6691201 -1.1431201 1.18866
2.68435 -1.12308 1.18514
2.6801901 -1.09154 1.18611
2.67454 -1.05967 1.18742
2.6708 -1.02939 1.18829
2.67909 -1.0061001 1.18637
2.6737599 -0.97570598 1.18761
2.6716399 -0.947442 1.1881
2.67746 -0.92350501 1.1867599
2.6700201 -0.89328003 1.18849
2.67307 -0.86847597 1.18778
2.2997899 -0.672553 1.27408
2.31177 -0.657309 1.27132
2.6859701 -0.79675102 1.18481
2.68138 -0.76942497 1.1858799
2.4472101 -0.650594 1.24002
2.4314301 -0.62273598 1.24367
2.43747 -0.60363197 1.24227
2.4394 -0.58306402 1.24183
2.4553599 -0.56748098 1.23814
2.6752801 -0.61976397 1.18731
2.6747 -0.59573001 1.18744
2.6791101 -0.57341701 1.18643
2.6870201 -0.55218798 1.1846
2.68187 -0.52721697 1.1857899
2.68577 -0.50497299 1.18489
2.6865101 -0.48195401 1.1847301
2.6877799 -0.45918301 1.18444
2.6770201 -0.4337 1.1869299
2.6791799 -0.41145399 1.18643
2.67361 -0.38765499 1.1877199
2.67875 -0.366198 1.18654
2.67909 -0.34382999 1.18646
2.68771 -0.32297 1.1844701
2.68629 -0.300381 1.1848
2.6823299 -0.277531 1.18572
2.68082 -0.255182 1.18607
2.6732099 -0.232179 1.18783
2.6861501 -0.211723 1.18485
2.6909201 -0.19019499 1.18375
2.6749799 -0.16677199 1.18743
2.69116 -0.14623 1.1837
2.6784201 -0.123468 1.18664
2.6893899 -0.102297 1.18411
2.6902599 -0.0804758 1.18391
2.4677701 -0.052034099 1.23534
2.4373 -0.032267001 1.24239
2.42997 -0.0133655 1.2440799
2.44049 0.0054607298 1.24165
2.4504399 0.0245263 1.23935
2.6821499 0.050269 1.1858
2.6873801 0.072233297 1.1846
2.68677 0.094033197 1.1847399
2.6919899 0.116219 1.18354
2.68589 0.13769899 1.18495
2.6798301 0.15907399 1.18635
2.6887801 0.18184701 1.1842901
2.68343 0.203284 1.1855299
2.6784899 0.2247 1.1866699
2.6763501 0.246438 1.18717
2.69243 0.27087501 1.18346
2.68171 0.2915 1.18594
2.68466 0.31428999 1.1852601
2.68171 0.33615401 1.18594
2.6794801 0.358179 1.18646
2.6809101 0.381006 1.18613
2.6930301 0.406326 1.1833301
2.6891301 0.42833501 1.18424
2.68297 0.44981101 1.18567
2.6886401 0.47430199 1.18436
2.68924 0.49770099 1.18422
2.68648 0.520307 1.18486
2.6887801 0.54448199 1.18433
2.6770599 0.56455702 1.18705
2.68469 0.59069598 1.18528
2.68771 0.61566198 1.18459
2.67766 0.636361 1.18692
2.69086 0.66533899 1.18387
2.68997 0.68961102 1.18408
2.6861401 0.71292901 1.18497
2.68097 0.73582202 1.18617
2.6807899 0.76086402 1.18621
2.68172 0.78660101 1.186
2.694 0.81760401 1.1831599
2.68049 0.83748502 1.18629
2.6935799 0.86971402 1.18327
2.68239 0.89086503 1.18586
2.6947 0.92366803 1.18301
2.47967 0.84077799 1.2327
2.46311 0.85635698 1.2365299
2.4389 0.86759299 1.24213
2.4416399 0.89338499 1.2415
2.4646699 0.93116701 1.2361799
2.6893699 1.08841 1.18427
2.6912601 1.11869 1.18384
2.68156 1.14226 1.18608
2.6949999 1.1806 1.1829799
2.69067 1.20824 1.18398
2.69419 1.2414401 1.18317
2.6856999 1.2669801 1.18514
2.6862099 1.2990299 1.18503
2.6900499 1.334 1.18414
2.6951699 1.3705601 1.18296
2.6974399 1.4057 1.18244
2.69135 1.43502 1.1838599
2.6870601 1.46614 1.18485
2.6918499 1.50506 1.18375
2.69274 1.5415699 1.18355
2.6842301 1.5707999 1.1855201
2.68806 1.61111 1.18464
2.68574 1.64683 1.1851799
2.6879001 1.68729 1.18468
2.69139 1.72987 1.18388
2.68976 1.76854 1.18426
2.6712401 -1.8018 1.1795501
2.6730299 -1.7628 1.17913
2.6801801 -1.72958 1.1774499
2.67976 -1.68996 1.17755
2.6775601 -1.64956 1.17808
2.67237 -1.60742 1.17931
2.6664901 -1.5656 1.1806999
2.67977 -1.54064 1.17757
2.6788599 -1.5043 1.17779
2.67678 -1.46771 1.17828
2.6710501 -1.42897 1.1796401
2.6791501 -1.4015 1.17773
2.6816101 -1.37012 1.17716
2.6784501 -1.33516 1.17791
2.66783 -1.29557 1.18042
2.67225 -1.26717 1.1793801
2.67384 -1.2372 1.17901
2.68016 -1.21073 1.17752
2.66816 -1.17283 1.1803499
2.67153 -1.14527 1.1795599
2.6695299 -1.1147701 1.18004
2.68415 -1.09451 1.17659
2.6752601 -1.06069 1.17869
2.6844599 -1.0376101 1.17653
2.6759901 -1.005 1.17853
2.6760099 -0.97745699 1.17853
2.6747401 -0.94958103 1.17883
2.6825399 -0.92657 1.177
2.6705799 -0.89406401 1.1798199
2.6844001 -0.8743 1.17656
2.30599 -0.67568702 1.2658499
2.30686 -0.65544498 1.26565
2.6761701 -0.79302102 1.17852
2.6810801 -0.76974702 1.1773601
2.4481001 -0.65128499 1.23233
2.4312401 -0.62298 1.23631
2.43067 -0.60139698 1.23645
2.4453299 -0.58549899 1.23299
2.4489801 -0.56555802 1.2321301
2.68593 -0.623685 1.17623
2.6718299 -0.59515297 1.1795599
2.67577 -0.57271802 1.17864
2.6821301 -0.55106199 1.17714
2.6705201 -0.52431297 1.17988
2.67049 -0.50113398 1.17989
2.68314 -0.48136699 1.17691
2.6765399 -0.456691 1.17847
2.6781199 -0.43420801 1.1781
2.6789801 -0.41165 1.1779
2.67733 -0.38865501 1.17829
2.6826301 -0.36717299 1.17704
2.68115 -0.34441 1.1774
2.67676 -0.321273 1.17844
2.6717801 -0.298233 1.17961
2.6805301 -0.27742699 1.17755
2.6856599 -0.25598899 1.17635
2.68049 -0.233218 1.17757
2.6877899 -0.21203201 1.17585
2.6820099 -0.189413 1.17721
2.6829 -0.16757099 1.1770101
2.6858201 -0.145907 1.17632
2.67574 -0.123366 1.1787
2.6737199 -0.101524 1.17918
2.67433 -0.079863802 1.17904
2.4844 -0.052556001 1.22385
2.4414899 -0.0323602 1.23397
2.4331999 -0.013394 1.23593
2.44979 0.0055134902 1.23202
2.4611499 0.024722399 1.22934
2.6791 0.0502082 1.17793
2.6884201 0.072316296 1.17574
2.67501 0.0934681 1.1789
2.6854601 0.115866 1.17644
2.68187 0.13747101 1.17729
2.6757901 0.15881 1.17873
2.68594 0.181667 1.17634
2.6759901 0.20257001 1.17869
2.6823399 0.22530399 1.1771899
2.67466 0.24635001 1.179
2.68483 0.26991001 1.17661
2.68929 0.29287601 1.17556
2.6868801 0.314852 1.1761301
2.67623 0.33534199 1.17864
2.6761301 0.357728 1.17867
2.68782 0.382662 1.17592
2.6858201 0.404973 1.1763901
2.6905601 0.42891401 1.17528
2.67802 0.44885999 1.1782399
2.6831 0.473153 1.17704
2.6820199 0.49603999 1.1773
2.68925 0.52138799 1.1756001
2.67818 0.54166698 1.17821
2.6860001 0.56763297 1.17637
2.6910501 0.59307402 1.17518
2.6805799 0.61364001 1.17765
2.68366 0.638807 1.17693
2.6827199 0.66279501 1.17716
2.6859701 0.68851799 1.1763901
2.68255 0.71195298 1.1772
2.68291 0.737023 1.17712
2.69209 0.76597202 1.17496
2.6791601 0.78596002 1.17801
2.6850801 0.81414902 1.17662
2.6856501 0.84031999 1.1764899
2.6873801 0.867311 1.17608
2.6875701 0.89388698 1.1760401
2.6796999 0.91673601 1.1779
2.4837601 0.84331203 1.22411
2.47138 0.86115801 1.22703
2.43979 0.86851001 1.23449
2.43961 0.89270902 1.23453
2.4638901 0.93120402 1.22881
2.6922801 1.09075 1.17496
2.68432 1.11515 1.1768399
2.69345 1.15028 1.17469
2.68729 1.1763901 1.17614
2.6940999 1.21118 1.17454
2.6907301 1.23984 1.1753401
2.69014 1.2707601 1.17548
2.68487 1.2988501 1.17673
2.6965101 1.33942 1.17399
2.6860099 1.3645999 1.17647
2.6872499 1.39882 1.17618
2.6895399 1.43446 1.17565
2.6834199 1.4641 1.17709
2.69133 1.50551 1.17523
2.6959 1.54509 1.17416
2.6890399 1.5757999 1.1757801
2.68431 1.60879 1.1769
2.68592 1.6479501 1.17653
2.6941299 1.6939501 1.1746
2.6967599 1.73588 1.17398
2.6879001 1.76779 1.17608
2.6694 -1.75985 1.17572
2.6678801 -1.7186 1.17609
2.67506 -1.68618 1.1743799
2.67151 -1.64466 1.17523
2.6800499 -1.61458 1.1732
2.6693101 -1.56847 1.17576
2.6775601 -1.53926 1.1738
2.6672299 -1.49529 1.17627
2.6703601 -1.46304 1.17553
2.66922 -1.4279799 1.1758
2.6779699 -1.4010201 1.17372
2.66874 -1.36102 1.17593
2.6821401 -1.33821 1.17274
2.6735899 -1.30001 1.17478
2.6690199 -1.26533 1.1758699
2.67397 -1.2376601 1.1747
2.6828699 -1.21286 1.17258
2.6728699 -1.17617 1.17497
2.68343 -1.153 1.1724499
2.6801701 -1.12154 1.1732301
2.6721101 -1.0877399 1.1751601
2.66923 -1.05755 1.17585
2.68293 -1.03706 1.17259
2.6772799 -1.006 1.1739399
2.6810801 -0.98042703 1.17304
2.6756201 -0.95031297 1.17434
2.67416 -0.92266601 1.17469
2.6802101 -0.89899498 1.17325
2.67068 -0.86811501 1.17553
2.31003 -0.67769003 1.26148
2.30843 -0.65629297 1.26186
2.6756301 -0.79302698 1.17436
2.6695099 -0.76518399 1.17582
2.44472 -0.65010399 1.22939
2.4414799 -0.62710702 1.23017
2.44666 -0.60753399 1.22893
2.4449501 -0.58551699 1.22934
2.45632 -0.568259 1.22664
2.68804 -0.62457597 1.17142
2.6823699 -0.598719 1.17278
2.6812699 -0.574588 1.17304
2.6828599 -0.55144101 1.17267
2.68466 -0.52847201 1.17224
2.6804099 -0.50396597 1.17326
2.6717701 -0.478576 1.17532
2.6870301 -0.45940199 1.17168
2.6882601 -0.43670401 1.1713901
2.67067 -0.40993601 1.17559
2.6742401 -0.38812599 1.17474
2.6873901 -0.36821699 1.17161
2.6849401 -0.345211 1.1722
2.6791601 -0.32178199 1.1735801
2.6889601 -0.30107501 1.17124
2.6826301 -0.27781999 1.17276
2.6895101 -0.25659099 1.17112
2.6840999 -0.23373701 1.17241
2.69086 -0.21244 1.1708
2.67662 -0.18892699 1.1742001
2.6777501 -0.167164 1.17393
2.6738701 -0.145033 1.17486
2.6744699 -0.123321 1.17472
2.6903 -0.102437 1.1709501
2.6812201 -0.080173597 1.17312
2.4707601 -0.052165899 1.22326
2.43468 -0.032247301 1.23186
2.43152 -0.0133878 1.23262
2.43364 0.0054243701 1.23212
2.45403 0.024605099 1.22726
2.6854501 0.050407398 1.17213
2.67451 0.071769297 1.17474
2.6789501 0.093702599 1.1736799
2.6781199 0.115427 1.17388
2.6881499 0.13799 1.17149
2.6749401 0.15878101 1.1746401
2.6888199 0.182009 1.17134
2.68994 0.204189 1.17107
2.6921899 0.226588 1.17054
2.68785 0.248211 1.17158
2.69031 0.270798 1.171
2.6767499 0.29096299 1.17423
2.68559 0.31472301 1.17213
2.6854801 0.33713901 1.17216
2.6851699 0.359606 1.17223
2.68451 0.38208801 1.17239
2.67804 0.40338001 1.1739399
2.68435 0.427598 1.1724401
2.6782899 0.44905701 1.17388
2.6784 0.47208101 1.17386
2.68945 0.498193 1.17123
2.68452 0.520208 1.17241
2.6807001 0.54257298 1.1733201
2.6921401 0.56969303 1.1706001
2.68364 0.59087598 1.1726201
2.68964 0.61684501 1.1712
2.6767199 0.63659 1.17428
2.68734 0.66465598 1.1717499
2.6933401 0.69147199 1.17033
2.6788001 0.71071601 1.17379
2.68086 0.73642099 1.17331
2.6872001 0.76418 1.1718
2.6805699 0.786798 1.17338
2.6866801 0.81509697 1.17193
2.69191 0.843418 1.1706899
2.6945 0.870911 1.1700701
2.68837 0.89454001 1.17154
2.6884699 0.921377 1.17152
2.48563 0.84449202 1.21984
2.4635301 0.85724801 1.2251
2.44291 0.87043101 1.23002
2.44666 0.89687198 1.22913
2.4628401 0.93085003 1.22528
2.6942599 1.09224 1.1701601
2.6824999 1.11438 1.1729701
2.6830599 1.1441801 1.17284
2.6863599 1.17615 1.17205
2.68559 1.20599 1.17224
2.69154 1.24076 1.17083
2.68946 1.2706701 1.17133
2.6886101 1.30186 1.17153
2.68765 1.3334399 1.17176
2.69717 1.37324 1.1695
2.6930101 1.40359 1.1705
2.6860399 1.43217 1.17216
2.6881599 1.4683 1.1716599
2.6891401 1.50419 1.17143
2.68679 1.53798 1.1720001
2.6974299 1.5834 1.16947
2.68817 1.61263 1.17168
2.68875 1.65096 1.17154
2.68607 1.6871099 1.17219
2.69661 1.7362601 1.16968
2.6917601 1.77201 1.17084
2.6797199 -1.77037 1.168
2.6664 -1.71786 1.1712199
2.67855 -1.68999 1.16829
2.6681399 -1.64226 1.17081
2.67572 -1.6114 1.16899
2.6715801 -1.57098 1.1699899
2.67033 -1.53381 1.1703
2.6807699 -1.50685 1.16778
2.66785 -1.4615901 1.17091
2.6782401 -1.4355 1.1684
2.67676 -1.40063 1.1687599
2.66749 -1.3606 1.17101
2.6693799 -1.3295 1.17055
2.6770899 -1.30295 1.1687
2.6722 -1.26798 1.16988
2.6782601 -1.24099 1.16842
2.67471 -1.20797 1.1692801
2.6686201 -1.1739 1.17075
2.6811399 -1.152 1.16774
2.6823201 -1.12325 1.16746
2.6715 -1.08778 1.1700701
2.66997 -1.05837 1.17044
2.6760199 -1.0335799 1.16899
2.67694 -1.0061899 1.16877
2.6700301 -0.97495103 1.17044
2.67716 -0.95145899 1.16872
2.6777101 -0.92478299 1.1685899
2.6752501 -0.89692599 1.16919
2.6835201 -0.874475 1.1672
2.30181 -0.674142 1.25928
2.2986801 -0.65218103 1.26004
2.6837299 -0.79678798 1.16716
2.6770899 -0.76860797 1.1687599
2.4583299 -0.65577698 1.22154
2.44556 -0.62889302 1.22462
2.43068 -0.60175598 1.22821
2.4426701 -0.58488798 1.22532
2.4513099 -0.56670702 1.22324
2.6698401 -0.61871898 1.17053
2.6772001 -0.59727699 1.1687599
2.6873 -0.57666397 1.16633
2.68172 -0.55131 1.16768
2.6779399 -0.52676499 1.1685899
2.6714301 -0.501724 1.1701601
2.6747501 -0.479523 1.16936
2.68397 -0.458821 1.16715
2.6842 -0.43592 1.1670901
2.6832399 -0.41286701 1.16733
2.6853299 -0.39058599 1.1668299
2.68068 -0.36703601 1.16795
2.6809001 -0.34459499 1.1679
2.68962 -0.323704 1.1658
2.6830599 -0.30024201 1.16738
2.6900301 -0.27902201 1.16571
2.6803701 -0.25544101 1.16804
2.6851499 -0.233955 1.16689
2.6806901 -0.211376 1.1679699
2.6907401 -0.190418 1.16555
2.6733501 -0.16683701 1.16974
2.6777501 -0.145385 1.16868
2.6793699 -0.123686 1.1683
2.6760299 -0.101716 1.1691
2.6744299 -0.0799229 1.16949
2.4839201 -0.052575398 1.21544
2.4346499 -0.032258399 1.22733
2.42905 -0.013378 1.22868
2.44923 0.0055117598 1.22382
2.4517601 0.0245726 1.22321
2.6779699 0.050207499 1.16866
2.6903901 0.072443798 1.16566
2.69067 0.094353601 1.1655999
2.67694 0.115393 1.16891
2.6834199 0.13767999 1.1673501
2.6796999 0.15925901 1.16825
2.6784101 0.181035 1.16857
2.6882901 0.204078 1.16619
2.67451 0.224484 1.16951
2.6926301 0.248951 1.16515
2.6821301 0.26969099 1.16768
2.6895499 0.29311401 1.16589
2.68362 0.31450099 1.16733
2.6924601 0.33854601 1.1652
2.6892099 0.36052999 1.16598
2.6767099 0.38060501 1.169
2.6922901 0.40667099 1.1652499
2.6793799 0.42659801 1.16837
2.69049 0.45221499 1.1656899
2.68261 0.47334099 1.16759
2.67943 0.49566999 1.16836
2.6923599 0.52261698 1.1652499
2.6886101 0.545111 1.16615
2.6869099 0.56829298 1.1665699
2.6777699 0.58920801 1.16877
2.69101 0.617531 1.16559
2.6839399 0.63933098 1.16729
2.6815 0.66279697 1.1678801
2.6923499 0.69136 1.16527
2.6823001 0.71233398 1.1677001
2.6910801 0.74078399 1.16558
2.6792901 0.76118898 1.16843
2.6807499 0.78716499 1.16808
2.6896801 0.81672198 1.16593
2.6830299 0.83968598 1.16754
2.6903601 0.86929101 1.1657701
2.6956501 0.89839101 1.1645
2.6878099 0.92139298 1.1663899
2.47967 0.841721 1.21658
2.4546399 0.85284102 1.22262
2.44647 0.87264901 1.2245899
2.4511499 0.89967 1.22347
2.46631 0.93314701 1.21981
2.69609 1.09372 1.16442
2.69291 1.1210901 1.16519
2.6893101 1.1484801 1.16606
2.68139 1.17343 1.1679699
2.69168 1.21042 1.1655
2.6933899 1.24245 1.16509
2.69503 1.2749701 1.1647
2.6821001 1.29776 1.16782
2.6968999 1.3406 1.16426
2.6934199 1.37098 1.1651
2.69328 1.40431 1.16514
2.6907001 1.4363101 1.16576
2.69503 1.47429 1.1647201
2.6905401 1.50588 1.16581
2.6972499 1.54725 1.1641999
2.68436 1.57287 1.16731
2.68873 1.6137201 1.16626
2.6870501 1.6500601 1.16667
2.6961401 1.69692 1.16448
2.69083 1.7315201 1.1657701
2.6902499 1.77122 1.16592
2.67048 -1.80339 1.16166
2.6772599 -1.76912 1.15999
2.6689601 -1.72132 1.16204
2.6789 -1.69136 1.1596
2.67186 -1.64661 1.16134
2.6810701 -1.61707 1.15908
2.6719999 -1.57231 1.16131
2.6770101 -1.5403301 1.16008
2.6740799 -1.50235 1.16081
2.67295 -1.46655 1.16109
2.67943 -1.43732 1.1595
2.67448 -1.39977 1.16072
2.6726401 -1.36526 1.16118
2.68274 -1.33998 1.1587
2.6800399 -1.30585 1.1593699
2.6755199 -1.27105 1.16049
2.6830499 -1.24498 1.15864
2.67658 -1.20994 1.16023
2.6682601 -1.1744 1.16228
2.6746399 -1.14868 1.16072
2.6679699 -1.11526 1.16236
2.6784101 -1.09254 1.1598001
2.67331 -1.06094 1.16106
2.6800201 -1.0364701 1.15941
2.68009 -1.00852 1.15939
2.67959 -0.980618 1.15952
2.6702001 -0.94847298 1.1618299
2.66991 -0.921462 1.1619101
2.6725399 -0.89616698 1.16127
2.6719799 -0.86958402 1.16141
2.30548 -0.67615497 1.25157
2.3055401 -0.65554398 1.25156
2.6868601 -0.79862797 1.15776
2.6828599 -0.77148402 1.15874
2.4493101 -0.65252 1.2162
2.4352701 -0.62525302 1.21965
2.4430599 -0.60672301 1.2177401
2.4516101 -0.58843899 1.2156399
2.4487 -0.56611103 1.21636
2.6743701 -0.620619 1.16085
2.6740799 -0.59664398 1.16092
2.6863501 -0.57673001 1.15791
2.6835599 -0.55220097 1.1586
2.6809101 -0.52793503 1.15925
2.68627 -0.50605798 1.15794
2.6801 -0.481206 1.1594599
2.6719401 -0.45614901 1.1614701
2.6858001 -0.43656501 1.15806
2.6717999 -0.410593 1.16151
2.6727901 -0.38821 1.16127
2.67484 -0.366115 1.1607701
2.6721301 -0.343189 1.16144
2.68486 -0.32308599 1.1583101
2.6809399 -0.30008999 1.15927
2.6856999 -0.27855399 1.15811
2.6791201 -0.255431 1.15973
2.6744101 -0.23276401 1.16089
2.6879301 -0.212323 1.15757
2.68085 -0.189542 1.15931
2.6789501 -0.167438 1.15978
2.67237 -0.145062 1.1614
2.67223 -0.123298 1.16144
2.69031 -0.102541 1.1569999
2.6724401 -0.079890102 1.1613899
2.4386799 -0.0323493 1.21889
2.43538 -0.0134253 1.2197
2.4421 0.0054743998 1.21805
2.44609 0.0244873 1.21707
2.6818099 0.050350498 1.1591001
2.68802 0.072392099 1.15758
2.68172 0.093940802 1.15913
2.6798 0.115649 1.15961
2.6829901 0.137732 1.15883
2.6738501 0.158842 1.16108
2.6771901 0.181025 1.16026
2.6740201 0.202609 1.1610399
2.6756899 0.22477099 1.16063
2.6930301 0.24916001 1.15637
2.67558 0.26888999 1.16067
2.6780801 0.291464 1.16005
2.67816 0.31375799 1.16004
2.67715 0.33594099 1.16029
2.6921599 0.36133301 1.1566
2.68822 0.383241 1.15757
2.6918099 0.40681899 1.15669
2.6810801 0.42726099 1.15933
2.69139 0.45271799 1.1568
2.6892099 0.475339 1.15734
2.6903 0.49891999 1.15707
2.67992 0.51942402 1.1596299
2.68996 0.54584903 1.15716
2.69081 0.56985199 1.15696
2.6791201 0.59000802 1.15984
2.6904299 0.617724 1.15706
2.6869199 0.64076501 1.15792
2.68662 0.66505998 1.158
2.6794701 0.686979 1.15976
2.6786001 0.71134299 1.1599801
2.69083 0.74115098 1.15697
2.68818 0.76534599 1.15763
2.6928501 0.79283398 1.15649
2.68121 0.81348997 1.15935
2.6943901 0.84539098 1.15611
2.6842 0.86693901 1.15862
2.6819799 0.89233398 1.15917
2.6803999 0.91827202 1.15956
2.4775801 0.841124 1.20943
2.45926 0.85575402 1.21394
2.43944 0.86931098 1.21882
2.44397 0.89616197 1.21771
2.4622099 0.931319 1.21322
2.68448 1.08757 1.1585799
2.68907 1.11947 1.15745
2.6866701 1.14756 1.1580499
2.6965301 1.1838 1.15563
2.68751 1.20845 1.15785
2.69225 1.24247 1.15669
2.6944399 1.27536 1.15615
2.68364 1.29966 1.15881
2.68908 1.3358099 1.15748
2.6823699 1.36368 1.15913
2.69591 1.40718 1.15581
2.6863401 1.43383 1.15817
2.68537 1.46755 1.15841
2.6926301 1.50852 1.15663
2.6954401 1.54672 1.1559401
2.6941099 1.58217 1.15627
2.6951399 1.6203099 1.1560301
2.69698 1.65995 1.15558
2.69087 1.69317 1.1570801
2.68975 1.73159 1.15737
2.69524 1.7771 1.15602
2.66573 -1.79931 1.15855
2.6660399 -1.75894 1.15847
2.66783 -1.7208 1.15804
2.6758499 -1.68911 1.15605
2.6739099 -1.64896 1.15653
2.6665201 -1.60489 1.15837
2.67838 -1.5782599 1.15543
2.66746 -1.53285 1.15815
2.6784 -1.50635 1.15544
2.66961 -1.46436 1.15763
2.67892 -1.43738 1.15532
2.66956 -1.39648 1.15765
2.67294 -1.3659101 1.15681
2.67032 -1.33143 1.15747
2.6723299 -1.30082 1.15697
2.6744001 -1.27069 1.15646
2.66853 -1.23563 1.15792
2.6810999 -1.21329 1.1548001
2.6714699 -1.17682 1.1572
2.6773 -1.1507 1.15576
2.6779699 -1.12168 1.1555901
2.6692901 -1.0875 1.15775
2.68345 -1.0671099 1.15424
2.68103 -1.03736 1.15484
2.6738501 -1.00545 1.15663
2.67454 -0.978257 1.15646
2.67469 -0.95108402 1.15643
2.6751599 -0.92438 1.15631
2.67557 -0.89792502 1.15622
2.6809001 -0.87406403 1.1549
2.3110199 -0.67886299 1.24678
2.3022101 -0.65423697 1.24897
2.6817701 -0.79670298 1.15469
2.6854 -0.77278501 1.15379
2.4428699 -0.65012002 1.21404
2.4327099 -0.62443602 1.21656
2.44592 -0.60796899 1.21328
2.45244 -0.58890802 1.21167
2.4526601 -0.56765503 1.21161
2.6825399 -0.62355602 1.15452
2.67102 -0.59584802 1.15738
2.6712999 -0.57225901 1.15732
2.68594 -0.553083 1.15368
2.67816 -0.52732402 1.15562
2.67518 -0.50321102 1.15636
2.67344 -0.479635 1.1568
2.6867599 -0.459943 1.1534899
2.67665 -0.43456501 1.15601
2.6893101 -0.414601 1.1528701
2.67239 -0.38824901 1.15707
2.6877501 -0.368774 1.15326
2.68207 -0.34513599 1.15467
2.6740699 -0.32132801 1.15666
2.6862299 -0.301034 1.15365
2.6776299 -0.27744499 1.15578
2.6805401 -0.255707 1.1550601
2.6740799 -0.232798 1.15667
2.6847999 -0.21204001 1.1540101
2.6880801 -0.190331 1.1532
2.6819601 -0.167759 1.1547199
2.6790199 -0.14562 1.15545
2.6837499 -0.124088 1.1542799
2.69012 -0.102564 1.1526999
2.67361 -0.079964198 1.15681
2.47789 -0.0524421 1.20541
2.4312201 -0.0322248 1.21701
2.4337399 -0.0134193 1.21638
2.4400599 0.00546422 1.21482
2.45906 0.0247191 1.2101001
2.68452 0.0504453 1.15411
2.6751599 0.071888998 1.15644
2.6914599 0.094484001 1.1524
2.6861899 0.116098 1.15371
2.6919799 0.13846301 1.15227
2.6807301 0.159499 1.1550699
2.6914699 0.182513 1.1524
2.6761601 0.202913 1.1562099
2.67839 0.225177 1.15566
2.67871 0.24729399 1.15558
2.6762099 0.26907 1.1562001
2.6803601 0.29192001 1.15518
2.6768701 0.31363699 1.15605
2.6877201 0.33799401 1.15336
2.68367 0.35978299 1.1543601
2.6921799 0.38418999 1.1522501
2.67535 0.40331501 1.15644
2.6929901 0.43017399 1.15206
2.67611 0.44911101 1.15625
2.6886699 0.47534999 1.1531399
2.6903601 0.49909499 1.15272
2.68641 0.52142602 1.1537
2.67716 0.54223698 1.156
2.68332 0.56772399 1.15448
2.6853499 0.59220302 1.15397
2.67887 0.61405402 1.1555901
2.6930399 0.64309901 1.15207
2.68574 0.66495401 1.15389
2.6847601 0.68917799 1.15413
2.68273 0.71317399 1.15464
2.6839399 0.738626 1.15434
2.6779001 0.76132798 1.1558501
2.68504 0.78974497 1.15408
2.6833799 0.81470799 1.15449
2.69011 0.84370899 1.15283
2.68472 0.86746103 1.15417
2.6903501 0.89667797 1.15277
2.68911 0.92291099 1.15308
2.4796801 0.84244603 1.20508
2.4697299 0.86153799 1.20755
2.4523301 0.87656301 1.21188
2.447 0.89810997 1.2132
2.45838 0.92938501 1.21038
2.6960399 1.09474 1.1513799
2.68448 1.1170501 1.15426
2.6914799 1.15092 1.1525199
2.6947801 1.1830699 1.15171
2.6851799 1.20732 1.15409
2.6909201 1.24198 1.15267
2.6958101 1.27671 1.1514699
2.6969299 1.30944 1.15119
2.68783 1.33533 1.15345
2.6891699 1.36914 1.1531301
2.6824999 1.39748 1.15478
2.69438 1.4405299 1.15184
2.69717 1.4773901 1.15115
2.6852701 1.50302 1.15411
2.6932001 1.54535 1.15215
2.6899099 1.57909 1.15297
2.69227 1.61833 1.15239
2.6981299 1.66152 1.1509399
2.6957901 1.69821 1.15152
2.69313 1.73531 1.15219
2.69016 1.77282 1.15293
2.67434 -1.76785 1.14924
2.6713901 -1.72508 1.14999
2.66804 -1.68288 1.15084
2.6664901 -1.6432199 1.15123
2.67606 -1.6141 1.14882
2.6765201 -1.57753 1.14871
2.6800399 -1.54419 1.14783
2.68118 -1.5094301 1.14754
2.6820099 -1.47504 1.1473401
2.67801 -1.4374599 1.14835
2.67329 -1.40007 1.14955
2.68225 -1.37356 1.14729
2.6825099 -1.34097 1.14723
2.6739299 -1.30266 1.1494
2.68172 -1.27642 1.14744
2.6836801 -1.24647 1.14695
2.6679499 -1.20534 1.15092
2.67079 -1.17702 1.15021
2.6698999 -1.1467201 1.15044
2.68278 -1.1252 1.14719
2.6715701 -1.08944 1.15002
2.6684201 -1.05904 1.15082
2.6788099 -1.03669 1.1482
2.6759801 -1.0071599 1.1489201
2.67837 -0.98081899 1.14832
2.66944 -0.948897 1.15058
2.6768401 -0.92572302 1.14871
2.6688499 -0.89514798 1.15073
2.6712999 -0.87001401 1.15012
2.67855 -0.84727901 1.14829
2.31231 -0.65900898 1.24073
2.6824801 -0.79744101 1.14731
2.6858599 -0.77340001 1.1464601
2.4442799 -0.651007 1.20743
2.4424901 -0.62853903 1.20788
2.4398301 -0.60598201 1.20856
2.45083 -0.58861798 1.20578
2.45924 -0.57022798 1.20366
2.6798401 -0.62299103 1.14799
2.6846001 -0.600555 1.14679
2.6770599 -0.57435501 1.1487
2.68766 -0.55389702 1.1460299
2.6842501 -0.52934301 1.14689
2.67664 -0.50388402 1.14882
2.6770799 -0.48084 1.14871
2.68259 -0.45916799 1.14732
2.6768401 -0.43484899 1.14877
2.6777501 -0.41226599 1.14855
2.68642 -0.39140001 1.14636
2.67946 -0.367342 1.14812
2.67593 -0.34419 1.1490099
2.6716599 -0.321087 1.15009
2.6800499 -0.30020699 1.14798
2.68817 -0.279163 1.1459399
2.6805 -0.25584099 1.1478699
2.6721699 -0.232687 1.1499799
2.6895399 -0.21269099 1.1456
2.6898799 -0.19061799 1.14551
2.6726301 -0.167022 1.14987
2.67326 -0.145257 1.1497101
2.6812601 -0.123994 1.1477
2.67276 -0.101694 1.14985
2.688 -0.080606997 1.146
2.4342 -0.032295302 1.21005
2.43911 -0.0134604 1.20881
2.4510801 0.0055271699 1.20579
2.4605501 0.0247558 1.20341
2.6776199 0.050270699 1.14864
2.6833601 0.072263099 1.14719
2.6877999 0.094342098 1.14607
2.6853099 0.116104 1.14671
2.68261 0.137822 1.14739
2.6833899 0.15982001 1.1472
2.69209 0.18267401 1.145
2.6898401 0.204556 1.1455801
2.67681 0.22510201 1.14887
2.6795399 0.247541 1.14818
2.6781399 0.269501 1.14854
2.69293 0.29409099 1.14481
2.6885099 0.31581199 1.14592
2.68349 0.33739999 1.14719
2.6937599 0.36196101 1.1446
2.6786101 0.381567 1.14843
2.6815801 0.40490901 1.1476901
2.6840501 0.428321 1.1470701
2.6796501 0.45022401 1.14818
2.68065 0.47353899 1.14793
2.68325 0.49744299 1.14727
2.6808901 0.520145 1.1478699
2.6823299 0.54406202 1.1475101
2.6924801 0.57086402 1.14495
2.6818199 0.59138602 1.14765
2.67923 0.61450899 1.1483001
2.68185 0.63955498 1.14765
2.68504 0.66506499 1.14684
2.69015 0.69156998 1.14556
2.6820099 0.71328002 1.14762
2.68467 0.73932099 1.14695
2.6948099 0.76876199 1.14439
2.6919 0.79311502 1.14513
2.6807499 0.81398797 1.1479501
2.6882401 0.84331501 1.14606
2.68293 0.86709201 1.1474
2.6901801 0.89708197 1.1455801
2.68784 0.92278099 1.14617
2.4723401 0.83908701 1.2005399
2.46786 0.86096901 1.2016701
2.45171 0.87665701 1.20574
2.4421699 0.89584303 1.20816
2.6889501 1.09115 1.14591
2.6926301 1.1225899 1.14499
2.6930301 1.15251 1.14489
2.69257 1.1823 1.14501
2.6821599 1.206 1.14764
2.6847601 1.23852 1.1469899
2.69666 1.278 1.14399
2.68716 1.30326 1.14639
2.69169 1.33884 1.14525
2.68536 1.36707 1.14685
2.69292 1.40615 1.14495
2.69028 1.43814 1.14562
2.69052 1.47291 1.14556
2.6957099 1.5123399 1.14426
2.6951101 1.54778 1.14442
2.6978199 1.5867 1.1437401
2.6919899 1.61897 1.14521
2.6847401 1.65046 1.14704
2.6895299 1.6934201 1.14584
2.6919999 1.7352 1.14522
2.69684 1.78018 1.1440099
2.6794 -1.77336 1.14316
2.6777799 -1.73171 1.14358
2.6716101 -1.68678 1.1451499
2.6748199 -1.65128 1.14434
2.67343 -1.61239 1.1447001
2.67781 -1.57921 1.14359
2.67309 -1.53896 1.1447999
2.6791301 -1.50833 1.14326
2.67682 -1.47145 1.14385
2.6791999 -1.43892 1.14325
2.68257 -1.40764 1.14239
2.67224 -1.36665 1.14503
2.66892 -1.33164 1.14588
2.6788199 -1.3066 1.14336
2.6680601 -1.26748 1.1461101
2.6801 -1.24454 1.14305
2.68329 -1.21584 1.14224
2.6775501 -1.18178 1.1437
2.68381 -1.15581 1.14211
2.6724999 -1.11938 1.145
2.67219 -1.09021 1.14508
2.67364 -1.06244 1.14472
2.6715801 -1.03302 1.1452399
2.66979 -1.00416 1.14571
2.6800399 -0.98207098 1.14309
2.6777699 -0.95354199 1.14368
2.67554 -0.92541599 1.14425
2.6823399 -0.90204102 1.14252
2.68325 -0.87597603 1.14229
2.6853499 -0.85070699 1.14176
2.30179 -0.654544 1.23958
2.68309 -0.79800302 1.1423399
2.68279 -0.77240902 1.1424201
2.45664 -0.65619701 1.2000999
2.43536 -0.62597799 1.20553
2.43344 -0.60378599 1.20602
2.44613 -0.58711302 1.20279
2.4616899 -0.57127398 1.19882
2.6709499 -0.62023699 1.14546
2.6737399 -0.59727198 1.14475
2.68115 -0.57583702 1.1428601
2.6711299 -0.54919201 1.14542
2.6800699 -0.52835298 1.14314
2.68348 -0.50592798 1.14228
2.6849401 -0.48305601 1.14191
2.6812601 -0.45901099 1.14285
2.67958 -0.43565199 1.14328
2.68449 -0.413914 1.14203
2.6738901 -0.38892001 1.14474
2.6791301 -0.36741599 1.1434
2.6900599 -0.34693301 1.14062
2.67887 -0.32245401 1.14347
